# 3D point list with one line of data per point:
#   POINT3D_ID, X, Y, Z, R, G, B, ERROR, TRACK[] as (IMAGE_ID, POINT2D_IDX)
# Number of points: 485, mean track length: 5.1
2678 -1.0073819273924454 -0.9595615517618044 -0.3945461959667429 50 67 57 1.39 87 0 88 0 89 0 
2679 -0.5670065988847168 -0.9885262264842354 -0.0443212612215762 51 57 55 0.62 87 0 88 0 89 0 
2680 -0.42441337803066637 0.01580919384427726 -1.1389063419445287 32 44 89 0.57 88 0 89 0 90 0 
2681 -0.6969561644616687 0.10799479893246189 -1.2444699554774483 98 91 86 0.73 88 0 89 0 91 0 
2682 -0.7122999785868022 0.026307689164675185 -1.0643336328922173 140 140 140 1.03 88 0 89 0 91 0 
2683 -0.670905706742749 0.02262758417208266 -1.0138700178349032 128 123 120 0.66 88 0 89 0 90 0 91 0 
2684 -0.5481513218416963 0.04191018362553378 -0.9581941059880559 96 99 106 1.37 86 0 88 0 89 0 90 0 91 0 
2685 -0.7631153616594458 -0.007702808115147786 -1.0111584512251541 138 136 139 0.45 88 0 89 0 90 0 
2686 -0.43406861227171933 0.09813832651974352 -0.8817079407339294 95 98 103 0.26 88 0 89 0 90 0 91 0 92 0 
2687 -0.8213749894137448 -0.01566574259265141 -1.0234811192693054 183 205 202 0.33 88 0 89 0 91 0 
2688 0.28331454793849475 0.08510085778828458 -0.546032886518621 57 55 59 0.22 88 0 89 0 90 0 
2689 -0.6890394851181395 -0.016297650197528935 -0.9199142250485606 134 129 128 0.27 88 0 89 0 90 0 
2690 -0.7772631403905402 -0.06812222983796423 -0.8738554857154761 130 130 129 0.99 88 0 89 0 90 0 
2691 -0.3404766945659986 0.03130145747027546 -0.6733184525845877 122 119 122 0.93 88 0 89 0 91 0 
2692 -0.7185668552276897 -0.04844226091236181 -0.8273385655305048 129 125 121 1.19 88 0 89 0 90 0 91 0 
2693 -0.781297737054525 -0.07382942121638258 -0.8229210489416543 129 127 127 0.41 88 0 90 0 91 0 
2694 -0.0009995551966326122 0.054522896805834 -0.4065402576798842 95 101 107 0.33 88 0 90 0 91 0 
2695 -0.7011775012348324 -0.03687951029280412 -0.7380113751239761 147 158 175 0.42 88 0 89 0 90 0 91 0 
2696 5.957505458546014 3.175648514158614 2.3478783184300873 142 167 181 0.57 88 0 89 0 90 0 91 0 
2697 6.2424318014082125 3.228209457869665 2.4839668550994154 192 228 248 0.63 88 0 89 0 90 0 91 0 
2698 -0.9562974375849992 -0.1050129024417048 -0.8346552211114728 152 158 161 0.49 88 0 89 0 91 0 
2699 -0.7976384629952463 -0.07650644282583952 -0.7126598442820509 153 152 149 0.88 88 0 89 0 90 0 
2700 1.6265923905249142 0.20782477707927183 0.48908516589984397 42 49 50 0.46 88 0 89 0 90 0 91 0 92 0 
2701 -0.05536346575050574 0.02893943099232299 -0.3251034616295796 55 51 51 0.21 88 0 89 0 90 0 
2702 -0.9777605963622299 -0.1266238748665367 -0.7822414052060545 111 107 110 0.43 88 0 89 0 90 0 91 0 
2703 -0.9656358144305202 -0.12332048007308383 -0.7736817788233057 131 130 132 0.69 88 0 89 0 90 0 91 0 
2704 1.3767479994191223 0.2211823552404646 0.4646285804211434 57 74 87 0.51 88 0 89 0 90 0 91 0 92 0 94 0 95 0 
2705 1.3606710167017384 0.25291080026792034 0.48220351476711687 60 57 54 0.28 88 0 89 0 90 0 91 0 92 0 
2706 -0.8506846524576998 -0.12078477679097954 -0.6533656048635619 107 103 104 0.53 88 0 89 0 90 0 91 0 
2707 -0.8048108133750874 -0.11208622187811246 -0.61641233442068 117 110 109 0.84 88 0 89 0 91 0 
2708 -1.0281735186892633 -0.15088763394363425 -0.7356029780686173 111 131 132 0.14 88 0 89 0 91 0 
2709 -0.8187721721768432 -0.12113831370072714 -0.6077941268965401 124 115 109 0.57 88 0 89 0 90 0 91 0 
2710 -0.898602830712347 -0.14433727138980523 -0.620369090520577 124 121 119 0.28 88 0 89 0 91 0 
2711 1.2788943985354733 0.20279920467955592 0.5895356313866256 117 134 156 0.65 88 0 89 0 90 0 91 0 
2712 1.7281543687310081 0.25356850127588837 0.8533439499992652 109 131 149 0.25 88 0 89 0 90 0 
2713 0.29073688805426035 0.083841340153612 0.06704610927022014 73 96 107 0.27 88 0 89 0 90 0 
2714 1.6829479365078406 0.25973720284017543 0.9015590003221039 113 129 142 0.25 88 0 89 0 90 0 
2715 0.09712709170421344 -0.017767289780407314 0.011627330660963331 74 62 48 0.56 88 0 90 0 91 0 92 0 
2716 -1.0187388778840405 -0.18434954528541292 -0.6147025514715034 104 104 106 0.46 88 0 89 0 90 0 
2717 1.9196807656345953 0.18728766861487078 1.1026544902592772 114 118 134 0.77 88 0 89 0 90 0 
2718 1.2035747071041134 0.17673402721050113 0.7079790703684881 97 131 156 0.93 88 0 89 0 91 0 
2719 -0.9912110545876116 -0.18258341605828687 -0.5719684751016918 101 90 95 0.71 88 0 89 0 90 0 91 0 
2720 0.09899336123143113 -0.03125353392850072 0.07905200257551392 117 108 103 0.99 88 0 89 0 90 0 
2721 -2.5777121293564256 5.510237925232663 -0.4367578097814102 214 227 241 0.2 88 0 89 0 90 0 
2722 0.7126700374542809 0.03381791183465155 0.4428110878405913 79 85 90 0.37 88 0 90 0 91 0 92 0 
2723 -0.9277197535406757 -0.1818809791021545 -0.51067405531913 123 124 124 0.65 88 0 89 0 90 0 91 0 
2724 1.8594388298117859 0.14134873201064768 1.1375768217880662 136 156 167 1.41 88 0 89 0 90 0 91 0 
2725 -0.049407873225699256 -0.45231570045583624 -0.04953781337279928 100 103 82 0.86 88 0 89 0 90 0 91 0 92 0 
2726 -0.7850881627745695 -0.16070116268100887 -0.4069144653706904 88 89 97 0.71 88 0 89 0 90 0 91 0 92 0 
2727 -0.9480377252885958 -0.1890879738792035 -0.5046843441921416 116 112 113 0.71 87 0 88 0 89 0 90 0 91 0 92 0 
2728 -0.8440385159592003 -0.12676754588125738 -0.4308745831118066 19 18 18 1.04 88 0 89 0 90 0 
2729 -0.034127905118060936 -0.5150638368705265 -0.03643321544586797 107 113 100 0.82 88 0 89 0 90 0 92 0 
2730 -0.7114119626898934 -0.1587779632969164 -0.3530572231938649 65 70 82 0.44 88 0 89 0 90 0 91 0 92 0 94 0 95 0 
2731 -0.930342085579729 -0.18609473439342494 -0.4740342118448302 125 125 123 0.76 88 0 89 0 91 0 
2732 0.06103039672027813 -0.06253248798208078 0.12489023250076592 69 73 79 0.38 88 0 89 0 90 0 91 0 92 0 
2733 -0.7985822746820735 -0.12237013236890038 -0.3795199895471386 49 49 46 0.59 88 0 89 0 90 0 
2734 -0.913162231681998 -0.18227477529074854 -0.46040573138639984 69 64 66 0.41 88 0 89 0 90 0 91 0 
2735 -0.9267612614712156 -0.19648569051736842 -0.44184562095195057 64 59 60 0.51 88 0 89 0 90 0 91 0 92 0 94 0 
2736 -0.9513194052376978 -0.20622244428085001 -0.453092580791842 76 73 81 0.32 88 0 89 0 91 0 
2737 -0.9826831531937955 -0.2203478454000931 -0.4670901281613973 122 122 122 0.09 88 0 89 0 91 0 
2738 -0.7413467151536713 -0.18109949674536763 -0.31318171458132626 72 70 66 0.64 88 0 89 0 91 0 
2739 -0.01860376795731375 -0.7322815376265253 -0.01617386838443524 49 62 41 0.28 88 0 89 0 90 0 92 0 
2740 -0.9682332543860287 -0.20639385407832722 -0.43647513546856254 108 109 109 0.44 88 0 89 0 90 0 91 0 
2741 -0.9403518517754226 -0.19711577601441777 -0.41653316175287447 91 94 105 0.3 88 0 89 0 90 0 91 0 
2742 -0.9604612225885651 -0.21549012330009476 -0.39320558188442734 65 70 76 0.74 88 0 89 0 90 0 91 0 
2743 -0.028586788088933307 -0.09401126155658379 0.21041951522119318 88 92 74 1.05 88 0 89 0 90 0 
2744 -1.0066638868534385 -0.21918247620140896 -0.4142712037323797 104 104 105 0.26 88 0 89 0 91 0 
2745 0.17973445962233978 -0.08579083242936103 0.3456675211015505 59 54 59 0.35 88 0 89 0 90 0 
2746 0.07113703951533043 -0.04706155169542292 0.28646135562773845 49 49 42 0.53 87 0 88 0 89 0 90 0 
2747 -1.1349743400010506 -0.3170676800483203 -0.5092330700534009 106 108 105 0.43 88 0 89 0 90 0 
2748 0.08359361504661325 -0.058654248125627806 0.31567240762253634 55 63 54 0.6 88 0 89 0 90 0 
2749 0.02379858357337586 -0.358868462758515 0.21559134612763864 97 105 95 1.24 88 0 89 0 90 0 
2750 -1.0298489665594366 -0.2294645531337538 -0.39493079181320034 122 122 123 0.95 88 0 89 0 91 0 
2751 -1.1553256417302191 -0.30702166934857744 -0.4914254374423801 93 94 93 0.26 88 0 89 0 90 0 
2752 0.017048041718805945 -0.8306496469705944 0.07232568039852794 82 92 63 0.37 88 0 89 0 90 0 
2753 -1.0872823834094332 -0.2430494694763743 -0.42775917997863644 89 90 94 0.34 88 0 89 0 90 0 
2754 -1.0439715843280288 -0.24256027293990878 -0.39415866167967795 106 106 112 0.44 88 0 89 0 90 0 92 0 
2755 -1.0730252641127493 -0.2376496439994853 -0.4100491744558301 89 89 91 1.12 88 0 90 0 91 0 
2756 -1.0844601075304774 -0.2508446140201974 -0.40709152920281455 141 143 145 0.28 88 0 89 0 90 0 91 0 92 0 
2757 -0.7387288451273474 -0.7723296689900214 -0.3623140263559792 46 54 47 0.86 88 0 89 0 90 0 91 0 
2758 -1.125984209292344 -0.26533557139152575 -0.42362364515470596 87 86 87 0.9 88 0 89 0 90 0 91 0 
2759 -1.0903605683453232 -0.2512154759196106 -0.39245235411171375 114 114 118 0.33 88 0 89 0 90 0 91 0 92 0 
2760 -1.0616096644574182 -0.2507003150627276 -0.37196457041185704 98 100 101 1.05 88 0 89 0 90 0 92 0 
2761 -1.116544075199579 -0.26460502650342765 -0.39678093958911154 86 88 90 0.72 88 0 89 0 90 0 91 0 92 0 
2762 -1.0718660336750303 -0.2578964648280151 -0.36167454953004907 114 116 118 0.61 88 0 90 0 91 0 
2763 -1.151846858300308 -0.2629224523920919 -0.405496063643493 87 85 88 0.55 88 0 89 0 90 0 
2764 -1.095816304659391 -0.2625658192713467 -0.36876018756734696 71 78 85 0.88 88 0 89 0 90 0 91 0 92 0 94 0 
2765 -1.1859340488316912 -0.28833677041923855 -0.42093530551576985 96 98 99 0.93 88 0 89 0 90 0 
2766 -1.2031967618482269 -0.28299828413042305 -0.4321070907305744 59 62 62 0.65 88 0 89 0 91 0 
2767 -0.7650075503076178 -0.8049563778118347 -0.34731097308643655 35 50 45 0.04 88 0 89 0 90 0 
2768 -1.1702192898336066 -0.2774665615444041 -0.40630114114552685 76 78 82 0.28 88 0 89 0 90 0 91 0 
2769 -1.1521341437537145 -0.2764912134127091 -0.3918304379817481 91 92 96 0.64 88 0 89 0 90 0 91 0 92 0 
2770 -1.1134726490300249 -0.26929749681476944 -0.36018085189018856 82 82 83 0.84 88 0 89 0 90 0 91 0 
2771 -1.2039033116708668 -0.30175707124662554 -0.42213860682430004 65 66 69 1.34 88 0 89 0 90 0 91 0 
2772 -1.134675526591118 -0.2780168013728834 -0.3599891334066667 94 97 99 0.69 88 0 89 0 90 0 91 0 92 0 
2773 -1.154493130045946 -0.28983722776093246 -0.3781976212551794 113 113 114 0.22 88 0 89 0 90 0 92 0 
2774 -0.1404375593229684 -0.8070676161526478 0.07936946257516064 76 76 45 0.41 88 0 89 0 90 0 
2775 -1.1198483790447578 -0.2661838842838453 -0.3441735275589597 97 99 101 0.4 88 0 89 0 90 0 91 0 92 0 
2776 -1.2402919084025448 -0.2654419562587458 -0.4132316595055425 55 55 57 1.5 88 0 89 0 90 0 
2777 -1.2168485014243093 -0.2875369075535408 -0.404274338515928 82 83 84 0.71 88 0 89 0 90 0 91 0 92 0 
2778 -1.1829666485880834 -0.2883033536665993 -0.38003180992792407 76 81 85 0.28 88 0 89 0 90 0 91 0 92 0 
2779 -1.2025170715030868 -0.297421171541423 -0.3810672914357096 93 96 98 0.52 88 0 89 0 90 0 92 0 
2780 -1.1388739743564187 -0.28331195681132093 -0.32655419706800903 88 93 98 0.62 88 0 89 0 90 0 91 0 92 0 
2781 -0.7691417271845518 -0.8753958476485082 -0.32854336938138484 59 80 77 0.28 88 0 89 0 90 0 
2782 -1.2341318723686454 -0.300073826065389 -0.381631130793453 77 79 80 0.45 88 0 89 0 90 0 91 0 
2783 -1.1461378407871763 -0.29332061313080726 -0.3175081002212159 84 86 90 0.07 88 0 89 0 91 0 
2784 -1.1620807765514374 -0.29490308994998826 -0.3287432737252012 89 96 97 0.5 88 0 89 0 90 0 91 0 92 0 
2785 1.3333233157070674 -0.028876307371917376 1.4851974147918539 73 80 83 0.38 88 0 89 0 90 0 
2786 -1.2088375923508727 -0.2971803896684435 -0.35697908841644654 64 63 62 0.69 88 0 89 0 90 0 91 0 
2787 -1.1668573587396383 -0.3040277776481164 -0.31597050570708896 100 100 106 0.86 88 0 89 0 90 0 91 0 
2788 -1.2128674284477012 -0.31748605146870834 -0.3406057945243868 68 68 68 0.61 88 0 89 0 90 0 91 0 
2789 1.2826995405028434 -0.06100027115854467 1.5004727038052008 35 35 41 0.21 88 0 89 0 90 0 
2790 -1.1892558163653673 -0.2988564462416907 -0.31125012131950225 85 86 85 0.52 88 0 89 0 90 0 
2791 -1.2031508962503068 -0.30846264754405417 -0.32295138592855177 38 44 48 0.18 88 0 89 0 90 0 
2792 1.373227959358268 -0.06485136917199008 1.5854523314197322 62 59 54 0.26 88 0 89 0 90 0 
2793 -1.1965538781196063 -0.3372566055875088 -0.29957137444158066 73 76 70 0.65 88 0 89 0 90 0 91 0 
2794 -0.8421315644725171 -0.9429135974755722 -0.34704694138507697 29 41 35 0.37 88 0 89 0 90 0 
2795 -0.8236633403437127 -0.9214989372450024 -0.32213936215424743 25 35 32 1.39 88 0 89 0 90 0 
2796 1.21925427476896 -0.050758064266096525 1.6087815255997655 76 85 90 0.49 88 0 89 0 90 0 
2797 -0.7317894084440522 -0.9249910893090549 -0.23394386583953786 31 43 42 0.89 88 0 89 0 90 0 91 0 
2798 -0.7324902710596929 -0.9440760536507582 -0.21993213980884851 25 33 24 0.61 88 0 89 0 90 0 91 0 
2799 -1.0276836198522916 -0.9343995610639888 -0.3903275129651189 49 57 54 0.98 88 0 89 0 90 0 
2800 -0.5821937575943467 -1.0197183022451817 -0.002804420561523635 26 46 35 0.46 88 0 89 0 90 0 
2801 -0.9608455466094514 -0.9557505815449174 -0.2521008356123109 32 46 35 0.56 88 0 89 0 90 0 91 0 92 0 
2802 -0.13192217302036838 -1.0276775074490467 0.3875105318723575 44 65 37 0.24 88 0 89 0 90 0 91 0 
2803 -0.10399336627743708 -1.0927496092682725 0.36600470961012177 39 57 43 0.46 88 0 89 0 91 0 
2804 -0.5970734682078029 -1.0339020772311411 0.015026718796027128 29 41 26 0.86 88 0 89 0 90 0 91 0 
2805 -0.7645024394420972 -1.0561749852908167 -0.13414422085530497 41 71 50 0.41 88 0 89 0 90 0 91 0 
2806 -0.587966701769873 -1.077415683131062 0.0017683603178968443 29 49 43 0.27 88 0 89 0 90 0 
2807 -0.6753260452636104 0.020129204870149797 -0.9923515467193176 116 123 128 0.1 89 0 90 0 91 0 
2808 -0.8076184738327173 -0.011031824126572554 -1.0428490584841228 197 208 207 0.62 88 0 89 0 90 0 91 0 
2809 0.12066822964811177 0.12138339018406596 -0.6093125204579661 71 82 90 0.33 89 0 90 0 92 0 
2810 -0.45787553330593156 0.007995680012123918 -0.7029437804993734 103 102 105 0.3 89 0 90 0 91 0 
2811 0.3222573298774446 0.1184938959373727 -0.3003260546034794 85 78 70 0.4 89 0 90 0 91 0 
2812 6.7219487727164475 2.537265001425099 2.8542283021160513 190 186 181 0.27 89 0 90 0 91 0 92 0 
2813 6.408959948594643 3.1472517263399857 2.766247144646414 185 233 251 0.5 89 0 90 0 91 0 
2814 -0.05485915241915826 0.06579554976847035 -0.3408342748304116 102 121 142 0.22 89 0 90 0 91 0 92 0 94 0 95 0 
2815 -1.897949383546868 7.874882630737941 -0.9286173679988603 120 172 182 0.28 89 0 90 0 91 0 
2816 6.346208000056696 2.4351934244117723 2.9781013538583023 137 148 127 0.61 89 0 90 0 91 0 
2817 -0.5747375055845748 -0.06951760652083028 -0.5486037089664819 73 71 75 0.49 89 0 90 0 91 0 92 0 94 0 
2818 1.2938314225662806 0.23617703594324202 0.4369983787955878 73 72 68 0.37 88 0 89 0 90 0 91 0 
2819 1.9843222811671368 0.2967736174252451 0.8181785336958092 38 40 38 0.73 82 0 83 0 88 0 89 0 90 0 91 0 92 0 
2820 -0.1301709952170997 0.06961537133345574 -0.25313992402621777 63 90 108 0.39 89 0 90 0 91 0 
2821 2.324709767122364 0.33316113760363075 1.087201700978845 55 53 45 0.46 89 0 90 0 91 0 92 0 
2822 -0.8970441215025308 -0.13877232811865703 -0.6355569837203006 120 117 117 0.73 89 0 90 0 92 0 
2823 2.2754345379227923 0.3161139030277511 1.0868704959596012 63 66 63 0.12 89 0 90 0 92 0 
2824 -1.4238157885408926 2.638285116508222 -0.552366296607441 136 128 122 0.61 89 0 90 0 91 0 92 0 94 0 98 0 
2825 2.061241656066426 0.2802587109749415 0.995855045194438 62 57 62 0.6 88 0 89 0 90 0 91 0 92 0 94 0 95 0 
2826 2.2571931665867764 0.31412398730672964 1.139153481814021 52 69 79 0.45 89 0 90 0 91 0 92 0 
2827 0.11546033079638143 -0.0184437712445924 -0.03180871076185099 136 155 176 0.45 89 0 90 0 91 0 
2828 -1.2338476447376572 0.782827790743654 -0.5847746722640328 91 85 78 0.48 89 0 90 0 91 0 92 0 94 0 95 0 98 0 
2829 0.17876540574968716 -0.6589475793085524 -0.03638005220511431 79 90 47 0.56 89 0 90 0 91 0 
2830 0.6632169229935063 0.08606756850008557 0.3790125624432479 126 148 164 0.36 89 0 90 0 91 0 
2831 -1.030163043570339 -0.2105609369445245 -0.5205366826624749 116 118 117 1.2 88 0 89 0 90 0 91 0 92 0 94 0 
2832 0.16772280164587436 -0.06533285518974874 0.24117454135612193 114 117 124 0.42 89 0 90 0 92 0 
2833 0.03551195888414607 -0.530340462822809 0.07883638953242578 117 119 100 1.49 89 0 90 0 91 0 
2834 -0.8875028728307296 -0.1504259000110455 -0.364877258120345 131 149 169 0.11 89 0 90 0 91 0 92 0 
2835 -0.8365239895991657 -0.14774645853874846 -0.32714238955478026 104 123 142 0.4 89 0 90 0 91 0 92 0 94 0 95 0 
2836 -0.9816309506288036 -0.20623759944255005 -0.4249327392072262 104 91 91 0.21 89 0 90 0 91 0 
2837 0.055776483933341586 -0.8625776616893635 0.03330342295557642 85 90 66 0.28 89 0 90 0 91 0 
2838 -1.1770376551624768 -0.24615885300049278 -0.5281636419643219 87 96 97 0.46 89 0 90 0 91 0 92 0 
2839 0.009285769762672952 -0.6937936685644213 0.09277041144638365 100 99 96 1.65 89 0 90 0 92 0 
2840 -0.9717003895705384 -0.2343118294999198 -0.34613816672222386 34 49 50 0.56 89 0 90 0 91 0 
2841 -1.0190017643226044 -0.23352650612489323 -0.37095635628292367 90 92 93 0.38 89 0 90 0 91 0 
2842 -0.8797811308623839 -0.5882082332923402 -0.39188226413494487 67 87 82 0.38 89 0 90 0 91 0 
2843 -0.08812228550133636 -0.7975489347440006 0.061812930876417926 48 62 39 0.83 89 0 90 0 92 0 
2844 -0.8713143421540169 -0.648335755180826 -0.39610282071881286 52 71 74 0.25 89 0 90 0 91 0 
2845 -1.0733898080496904 -0.24908457658362226 -0.38065025935868646 91 95 100 0.23 89 0 90 0 92 0 
2846 -0.986863864649719 -0.25666298571166424 -0.31420639622409974 23 34 33 0.58 89 0 90 0 94 0 
2847 1.8143715455653742 0.04872495724357151 1.6900595462756438 73 83 79 0.14 89 0 90 0 91 0 
2848 -0.09661065403082944 -0.7831816402948955 0.12130432452978024 83 98 59 0.58 89 0 90 0 91 0 
2849 -1.23725764278395 -0.2896526868308136 -0.45063338617279447 69 72 66 0.64 89 0 90 0 91 0 92 0 
2850 -1.0912177571248454 -0.272652741632571 -0.34691694436321674 102 103 108 1.0 89 0 90 0 91 0 92 0 
2851 -0.22695622388892975 -0.7551725768210071 0.05095291776686173 35 50 30 0.53 89 0 90 0 91 0 92 0 
2852 -0.6004159731315396 -0.8164858304933789 -0.22340661321821864 29 36 35 0.58 89 0 90 0 91 0 92 0 
2853 -0.5904078002551192 -0.8289194448982686 -0.2186920522501512 146 149 148 0.24 89 0 90 0 91 0 92 0 
2854 -1.249490195525596 -0.28683276177920125 -0.4262836256371989 61 62 61 0.7 89 0 90 0 91 0 92 0 
2855 -1.1437600856498182 -0.2820813441175194 -0.3488372728967044 88 96 100 0.32 89 0 90 0 91 0 
2856 -1.173282579799644 -0.294845907287989 -0.3566794109023479 73 75 79 1.38 88 0 89 0 90 0 91 0 92 0 
2857 1.4504417486635255 -0.04664029712432871 1.606553305457168 72 80 73 0.32 89 0 90 0 91 0 
2858 -0.21377497571669865 -0.7396351872480544 0.1399835739309403 81 84 79 1.2 89 0 90 0 91 0 
2859 -1.1281919052757567 -0.283361523889716 -0.29979239269724567 88 89 92 0.95 88 0 89 0 90 0 91 0 92 0 
2860 -0.9355731548741681 -0.7737361454549652 -0.37684742995909115 52 59 50 0.45 89 0 90 0 91 0 
2861 -0.11131692582866201 -0.9092568599649604 0.15776916687330722 52 72 41 1.34 89 0 90 0 91 0 
2862 -1.1238030851896947 -0.2927360064919926 -0.27892157845809296 59 59 59 0.5 89 0 90 0 91 0 
2863 -1.107862067242191 -0.29358620141656044 -0.26633241339251335 32 32 37 0.27 89 0 90 0 91 0 92 0 
2864 -0.9667092871636411 -0.78365297772573 -0.32000009999511825 21 31 28 0.21 89 0 90 0 92 0 
2865 -0.9077949869041286 -0.8760363858204878 -0.30740950203301054 30 36 31 0.28 89 0 90 0 91 0 92 0 
2866 -0.7719627427002747 -1.0537185198113679 -0.18971737323499416 15 23 18 0.88 89 0 90 0 91 0 
2867 -1.1533182382832532 -0.8816563255722094 -0.3553397635253055 24 36 22 0.41 89 0 90 0 91 0 
2868 -0.9761675266988822 -0.9514140702716778 -0.2501429831216888 30 47 37 0.3 89 0 90 0 91 0 
2869 -0.7375964276495488 -1.0613725711047788 -0.11670909890655112 35 54 38 0.81 89 0 90 0 91 0 
2870 -0.9639887253123948 -0.9635323186198372 -0.2027977169109363 23 36 27 0.33 89 0 90 0 91 0 
2871 -1.3450758933427336 -0.7458875265133884 -0.3613160873251662 21 34 24 0.57 89 0 90 0 91 0 
2872 -0.3224236983832768 -1.134493901483178 0.2504021629533031 31 47 30 0.57 89 0 90 0 91 0 
2873 -1.0122245306856523 -0.9749235108417345 -0.2509987830992175 15 21 16 0.39 89 0 90 0 91 0 
2874 -0.9557770557294704 -1.01420396554988 -0.22337012948625778 53 77 55 0.17 89 0 90 0 91 0 
2875 -1.1322942766815134 -0.9491086727871181 -0.31728158912151594 37 51 45 0.74 89 0 90 0 91 0 
2876 -0.47991001548011525 -1.1176774495533508 0.16175968170752775 13 22 18 0.57 89 0 90 0 91 0 
2877 -0.6424747619538685 -1.0580681285575497 0.05640329424412416 12 25 16 0.34 89 0 90 0 91 0 
2878 -0.6835402707439077 0.04879793406613331 -1.282319411592396 122 132 136 0.97 90 0 92 0 94 0 
2879 -0.7000569810207152 0.06254607823530578 -1.187485062583543 118 113 105 0.49 90 0 92 0 95 0 
2880 -0.7808394139607061 0.03950023607385922 -1.0645534489805688 178 180 179 0.96 90 0 91 0 92 0 
2881 -0.3913334220663989 0.04313388430402432 -0.7947320122697685 89 90 95 0.3 90 0 92 0 94 0 
2882 -0.8766897650823376 -0.002967673112200364 -0.9514884100275163 143 137 131 0.45 90 0 92 0 94 0 95 0 
2883 -0.8882122375964171 0.029042995962614837 -0.9421735420949751 152 139 128 0.48 90 0 91 0 92 0 94 0 95 0 
2884 0.05914439734470536 0.14098033877204585 -0.5131421668122926 65 64 63 0.33 90 0 91 0 92 0 94 0 95 0 
2885 -0.9526220875354247 0.8333595340827301 -0.9459563681699472 107 129 137 0.47 90 0 91 0 92 0 94 0 
2886 0.013513228073747469 0.11103462477158255 -0.4625845883540356 120 137 158 0.43 90 0 91 0 92 0 94 0 
2887 -0.9831753376026549 0.9253596431432323 -0.9214005764110516 93 98 93 0.35 90 0 92 0 94 0 95 0 98 0 
2888 -0.8594052673452698 -0.05972826230062145 -0.8289319268294197 123 123 128 1.27 90 0 91 0 92 0 
2889 -0.022549142197450606 0.08897965176899625 -0.4060150112232985 118 134 155 0.41 90 0 91 0 92 0 94 0 
2890 -0.7335903183214691 -0.07177600211397772 -0.7050604278812198 129 139 161 0.36 90 0 91 0 92 0 
2891 -0.9853779143496982 0.04242494749017278 -0.8191022591867352 99 94 93 0.53 90 0 91 0 92 0 94 0 95 0 
2892 -1.0220326209952095 0.2826059504891292 -0.7981514427944898 116 107 101 0.18 90 0 92 0 94 0 
2893 -1.0184703549115541 -0.04960673583043551 -0.7600966720641233 147 142 136 0.85 90 0 91 0 92 0 94 0 95 0 
2894 -1.2756910945758344 1.9051143559352017 -0.6646249333017726 55 76 77 0.76 90 0 91 0 92 0 95 0 98 0 
2895 2.506768074606579 0.3650119857100673 1.217403825020244 70 88 89 0.48 90 0 91 0 92 0 95 0 
2896 -1.0726946271879507 0.10927607937232531 -0.7183969764417641 132 123 116 0.87 90 0 91 0 92 0 95 0 
2897 -1.1782561532433795 0.8022862506612553 -0.6563387212652532 60 65 65 0.75 90 0 91 0 92 0 94 0 95 0 98 0 
2898 -1.1056615732282529 0.05523196309757994 -0.671504464479558 131 121 115 0.64 90 0 91 0 92 0 94 0 
2899 -1.1508819522027085 0.31383404217302213 -0.6402235872576449 138 132 126 0.79 90 0 91 0 92 0 94 0 95 0 
2900 -1.1489757594609296 0.24902399939293773 -0.632654144948058 110 106 101 0.79 90 0 91 0 92 0 94 0 95 0 
2901 -1.1928690778583675 0.47576286650246646 -0.5983976986410098 147 134 121 0.71 90 0 91 0 92 0 95 0 98 0 
2902 -1.2313453127500134 0.5912945933117231 -0.5667850196468898 128 121 117 0.71 90 0 91 0 92 0 94 0 95 0 98 0 
2903 -1.440047823583444 1.8161595251479439 -0.4344986126826289 73 92 100 0.58 90 0 92 0 95 0 98 0 
2904 -1.1204584648234297 -0.09984413674524739 -0.6262714691984446 132 124 118 0.51 90 0 91 0 92 0 
2905 -1.3028726573085343 0.9211576636499355 -0.5100456328005389 172 165 157 0.49 90 0 91 0 92 0 94 0 
2906 -1.117371709854573 -0.13154510243068995 -0.6190291922418107 103 95 91 0.29 90 0 91 0 92 0 94 0 95 0 
2907 -1.4968541146288314 1.7735413667041275 -0.3535147412965378 114 114 119 0.23 90 0 92 0 95 0 98 0 
2908 -1.1762767731109005 0.061745130985269014 -0.5664970773595344 98 87 86 0.31 90 0 91 0 92 0 94 0 
2909 -0.7481280465316523 -0.1220153858042119 -0.3462720846041327 32 32 32 0.86 90 0 91 0 92 0 94 0 95 0 
2910 -1.1476742001185392 -0.16898811232757893 -0.5824221124627327 99 94 92 0.52 90 0 92 0 94 0 
2911 -1.1912697528382186 0.054591412668079764 -0.5480111500918086 118 112 104 1.07 90 0 91 0 92 0 
2912 -0.9854485699775506 -0.2129029876799573 -0.4810883533610619 78 75 78 0.36 90 0 91 0 92 0 
2913 -0.8179352687926885 -0.13541536132764698 -0.3528541900845803 86 104 121 0.38 90 0 91 0 92 0 94 0 
2914 -1.1601143905158384 -0.2105051325869569 -0.5587006287243348 112 111 106 0.54 90 0 91 0 92 0 95 0 
2915 -0.786966428834739 -0.14758766969296544 -0.2914832560603049 98 112 128 0.51 90 0 91 0 92 0 94 0 95 0 
2916 -0.8101610130154576 -0.14582266721077541 -0.307792287042312 108 121 131 0.45 90 0 91 0 92 0 
2917 -1.2684824910350267 -0.3216516691021465 -0.6033223293201067 131 133 123 0.89 90 0 91 0 92 0 
2918 -1.2098737417797145 -0.23103659502788343 -0.5029482725475873 100 108 107 0.85 90 0 91 0 92 0 
2919 -1.0123855263159496 -0.2509869561236979 -0.332463677814528 89 91 95 0.49 90 0 92 0 94 0 
2920 -0.8262664097852631 -0.8233757936193082 -0.40672827854727966 64 63 43 0.24 90 0 91 0 92 0 
2921 -0.7448093151047506 -0.8131069670621749 -0.34414450008346975 40 53 44 0.61 90 0 91 0 92 0 
2922 -0.7562594932328179 -0.8262830547883391 -0.3435746640983668 17 28 20 0.33 90 0 91 0 92 0 
2923 -0.9469913104173054 -0.783879898688902 -0.41382385049592196 39 64 67 0.21 90 0 91 0 92 0 
2924 -0.9740069757836635 -0.6898516487794988 -0.38925953086460385 29 42 41 0.25 90 0 92 0 94 0 
2925 -1.0590600967923545 -0.28951594473560616 -0.26526993077879624 43 59 70 1.05 90 0 92 0 94 0 
2926 -0.9470853176805358 -0.7702953257017942 -0.36407906868522266 26 34 34 0.6 90 0 91 0 92 0 95 0 
2927 -1.17330093583144 -0.3032146092035217 -0.3037074677380551 88 91 98 0.39 90 0 91 0 92 0 
2928 -1.0328396741662853 -0.5506397666646998 -0.30587106904678185 28 48 45 1.04 90 0 91 0 92 0 94 0 95 0 
2929 -0.8258986133377252 -0.9343094945664385 -0.31190959536952034 45 60 62 0.36 90 0 91 0 92 0 
2930 -0.8185697516954769 -0.945855063282073 -0.30598367854890496 31 31 29 0.21 90 0 91 0 92 0 
2931 -1.7334823409982523 -0.2611873879686162 -0.4313995137261095 37 45 38 0.17 90 0 91 0 92 0 
2932 -0.7713646737658139 0.09905464307048617 -1.0926083387042298 187 182 170 0.33 92 0 94 0 95 0 
2933 -0.7883082716886605 0.20984824178572015 -1.092893215954422 159 152 143 0.25 92 0 94 0 95 0 
2934 -0.8035749365403797 0.015958787252142947 -1.0515237496686107 156 150 147 0.22 92 0 94 0 95 0 
2935 -0.828456446829816 0.2989690201542783 -1.0673450563517002 134 131 125 0.42 92 0 94 0 95 0 
2936 -0.835867079520084 0.27737254756874097 -1.0497119095094956 140 136 132 0.53 92 0 94 0 95 0 
2937 -1.7299707086430867 -0.2888933158570637 -1.3584670602720306 33 37 37 0.26 92 0 94 0 95 0 
2938 -0.8350093979095167 0.22272183528255574 -1.0380920797291897 147 136 123 0.39 92 0 94 0 95 0 
2939 -0.852825319076368 0.5599200345450559 -1.0515051657002523 114 123 130 0.57 92 0 94 0 95 0 
2940 -0.8317004656816096 0.08371275418097901 -1.0280522619153873 122 127 133 0.21 92 0 94 0 95 0 
2941 -0.8308377651454862 -0.002142176716574351 -1.018616543927346 170 168 161 0.23 92 0 94 0 95 0 
2942 -0.8359271556192517 0.03596831553103286 -1.0199836288770787 134 128 121 0.59 92 0 94 0 95 0 
2943 -1.7402830896907358 -0.29273980687512746 -1.3482795029238952 32 38 36 0.76 92 0 94 0 95 0 
2944 -0.3778897660999033 0.1016897440896396 -0.8477303971978025 67 65 63 0.38 92 0 94 0 95 0 
2945 -0.8879977434069802 0.7152211751827307 -1.0230700610778132 114 102 94 0.42 92 0 94 0 95 0 98 0 
2946 -0.8432303898710575 0.01859874349643742 -1.0011320043777707 145 147 150 0.48 92 0 94 0 95 0 
2947 -0.8706593435674047 0.20167240382047757 -0.9909899978414454 150 139 129 0.73 92 0 94 0 95 0 
2948 0.29585470123659785 0.07691733477058205 -0.5676377184692991 49 54 63 0.43 92 0 94 0 95 0 
2949 -0.8892133080229879 0.5128027749650363 -0.98843221005396 133 126 118 0.78 92 0 94 0 98 0 
2950 -0.8839057226504118 0.2199977754584228 -0.9854348496344141 168 157 143 0.46 92 0 94 0 95 0 
2951 -0.8887688315930238 0.3645886849224711 -0.9753872416400431 152 142 129 0.21 92 0 94 0 95 0 
2952 -0.9011016092837412 0.42278170638061763 -0.9806680291367318 84 95 110 0.29 92 0 94 0 95 0 
2953 -0.8702454503177198 0.020959720390804737 -0.9712054236537897 144 141 137 0.34 92 0 94 0 95 0 
2954 -0.8756283460212232 0.10258155721760032 -0.9645467814364821 128 124 120 0.11 92 0 94 0 95 0 
2955 -0.9264459499109131 0.7170074531247645 -0.973579815291933 109 116 121 0.65 92 0 94 0 98 0 
2956 0.25882886514494874 0.1463238213908693 -0.49870765874799705 21 20 22 0.45 92 0 94 0 95 0 
2957 -0.8968468511548852 0.07536585223016767 -0.9431854400449216 164 154 144 1.14 92 0 94 0 95 0 
2958 -0.901495398941432 0.0734586946440896 -0.9298728689988702 151 142 133 0.4 92 0 94 0 95 0 
2959 -0.9120734139679886 0.1127794759860361 -0.92052289548228 144 132 121 0.43 92 0 94 0 95 0 
2960 -0.9779454114818191 0.675843198326344 -0.9220035036890697 186 203 211 0.33 92 0 94 0 95 0 
2961 -1.006816683443367 0.9146661682962692 -0.8936981050736246 148 158 157 0.23 92 0 94 0 98 0 
2962 -0.7700693974520386 -0.052005143430725154 -0.847044998665381 116 109 109 1.18 92 0 94 0 95 0 
2963 -0.9449599616668597 0.23690576413154463 -0.8998013303481467 124 118 114 0.65 92 0 94 0 95 0 
2964 -0.9208037166048352 -0.06174919812793522 -0.9007794819274646 131 124 121 1.05 92 0 94 0 95 0 
2965 -0.9718037847398912 0.4640970367982111 -0.8895251946598588 124 123 127 0.36 92 0 94 0 95 0 
2966 -0.45715614073174937 0.005594881032229493 -0.7043632307746681 105 107 109 0.12 92 0 94 0 95 0 
2967 -1.8314181436536388 -0.25056481259993046 -1.2877339122703035 23 24 25 1.09 92 0 94 0 95 0 
2968 -0.9572660182549441 0.2468708369115702 -0.8832522143222952 164 161 158 0.33 92 0 94 0 95 0 
2969 -0.9861960256807162 0.7495741521299075 -0.837177184756082 135 147 165 0.28 92 0 94 0 95 0 
2970 -0.9784634603721877 0.34933506489131383 -0.8580725959447961 137 123 116 0.28 92 0 94 0 95 0 
2971 -0.9652289397050392 0.17182480321665095 -0.8632764985852144 157 155 152 0.15 92 0 94 0 95 0 
2972 0.3381248270744922 0.1279139451750928 -0.324715840063454 42 37 42 0.07 92 0 94 0 95 0 
2973 -0.9504119017641799 0.0027393557480510644 -0.8556510427847335 131 127 123 0.14 92 0 94 0 95 0 
2974 -0.9501023863355551 -0.06805063017165991 -0.8542663075402737 117 100 101 0.58 92 0 94 0 95 0 
2975 -1.8359416787101408 -0.2753134179031014 -1.2543410292466146 80 69 89 0.65 92 0 94 0 98 0 
2976 -0.9875243448331686 0.2521695238036352 -0.8295774078669012 134 126 122 0.56 92 0 94 0 95 0 
2977 -1.021563364973566 0.7975275350083639 -0.7950802007095565 190 218 234 0.34 92 0 94 0 98 0 
2978 -1.8752993222091228 -0.25854640118259353 -1.2682017051542247 17 24 25 0.34 92 0 94 0 95 0 98 0 
2979 -0.9835758797033238 0.042816204114972 -0.8484884480218313 118 109 100 1.72 92 0 94 0 95 0 
2980 -0.9525217218821286 -0.10128514838566627 -0.8459049230381979 135 138 141 0.51 92 0 94 0 95 0 
2981 -1.0415398734261294 0.8526652543474367 -0.7813129103496923 145 164 175 0.29 92 0 94 0 98 0 
2982 -0.5991706086534153 -0.0012443553050687228 -0.6652829788768551 144 160 174 0.58 92 0 94 0 95 0 
2983 -0.9688753780543764 -0.04753579776797423 -0.8329369374951816 138 132 127 0.48 92 0 94 0 95 0 
2984 -1.0537531273561076 0.5058389759380872 -0.8076076979251039 163 158 149 0.63 92 0 94 0 95 0 
2985 -1.0174846718987893 0.34493266125563626 -0.805820909475865 137 133 129 0.41 92 0 94 0 95 0 
2986 -0.9899495806393783 -0.06459116303215695 -0.81488176169796 136 129 122 0.57 92 0 94 0 95 0 
2987 -1.0600512615659354 0.7686812622706468 -0.7383367325312542 203 227 243 0.69 92 0 94 0 95 0 98 0 
2988 -1.3735673987188028 2.6095032486086156 -0.6605493262043374 188 194 193 1.44 92 0 94 0 95 0 98 0 
2989 -0.9800401826792119 -0.12184017354402932 -0.8020223215108957 127 132 140 0.6 92 0 94 0 95 0 
2990 -1.2025816252469612 1.5001136628947138 -0.7002111792706964 151 154 161 0.71 92 0 94 0 95 0 98 0 
2991 -1.351026675196662 2.506995133715695 -0.640384636555789 134 133 132 0.45 92 0 94 0 95 0 
2992 -1.4041433843713342 2.5001554356895053 -0.6403825091471882 198 226 234 0.43 92 0 94 0 95 0 98 0 
2993 -1.440294876276057 2.7454109753284435 -0.6292276093182485 67 65 52 0.62 92 0 94 0 95 0 98 0 
2994 -1.0809470168634694 0.4605464001354551 -0.7537233694263255 102 93 87 0.32 92 0 94 0 98 0 
2995 -1.3656866932141032 2.509020326440297 -0.6074834180381892 128 110 110 0.35 92 0 94 0 95 0 98 0 
2996 0.9556033823674875 0.18744833400953786 0.14138045974856928 49 58 69 0.37 92 0 94 0 95 0 
2997 -1.253996039150696 1.8955488251958377 -0.6317071650687658 77 80 82 0.63 92 0 95 0 98 0 
2998 -1.4527218676131932 2.686830181755032 -0.6159967834321942 122 117 114 0.93 92 0 94 0 98 0 
2999 -1.173247514366803 1.0437251148603466 -0.6958727931296971 187 183 174 0.1 92 0 94 0 98 0 
3000 -1.0157322002595492 -0.04001407158036918 -0.7706432213251517 125 120 114 0.47 92 0 94 0 95 0 
3001 -1.467053218356997 2.6127309920218056 -0.6056925621617872 162 179 183 0.68 92 0 94 0 95 0 98 0 
3002 -1.090697144136461 0.5358389868636646 -0.7143101025310776 161 155 146 1.19 92 0 95 0 98 0 
3003 -1.089898834533989 0.749215081511514 -0.6744476707232283 143 166 186 0.29 92 0 94 0 95 0 98 0 
3004 -1.3943481052103839 2.4341060878390364 -0.5644171584440989 184 174 176 0.47 92 0 94 0 95 0 98 0 
3005 -1.113769285364941 0.7988381421483484 -0.6647400001378467 133 154 172 0.23 92 0 94 0 95 0 98 0 
3006 -1.2893972785908308 1.8734560867590275 -0.5804556786893884 150 152 164 0.81 92 0 95 0 98 0 
3007 -0.5574230000748863 -0.07596991867190539 -0.5346904530070202 114 128 143 0.58 92 0 94 0 95 0 
3008 -1.1644047236254866 0.8065531515927745 -0.6821968404614394 54 61 64 0.49 92 0 94 0 95 0 
3009 -1.0436466852427975 0.01221104694681352 -0.7459838420584717 142 135 127 0.64 92 0 94 0 95 0 
3010 -1.037322047037601 -0.039845190033600764 -0.7463039813422978 145 139 132 1.29 92 0 94 0 95 0 
3011 -1.0470056553896068 0.058539572797203565 -0.7320793798820104 110 108 101 0.66 92 0 94 0 95 0 
3012 -1.3321547756538037 1.8876201483002477 -0.5774172804531301 113 120 125 0.36 92 0 95 0 98 0 
3013 -1.0187391908581063 -0.14527914496151162 -0.748451124436615 120 118 121 0.58 92 0 94 0 95 0 
3014 -1.0492873241350575 -0.01795950856170303 -0.74228311062586 131 127 121 0.49 92 0 94 0 95 0 
3015 -1.3073407134036636 1.793002883496101 -0.5370814157752108 182 215 227 0.66 92 0 94 0 95 0 98 0 
3016 -1.3265634968821745 1.8510731765463142 -0.5250346833369544 183 201 219 0.39 92 0 95 0 98 0 
3017 -1.1459073762781449 0.6848002377956224 -0.6392063724853427 204 218 225 0.83 92 0 94 0 98 0 
3018 -1.141418579424832 0.4818541843099371 -0.6655902938057601 141 140 137 0.43 92 0 94 0 98 0 
3019 -1.1354426741490777 0.42020375257386267 -0.6698440458238908 91 94 105 0.37 92 0 94 0 95 0 98 0 
3020 -1.1714376360800682 0.5457516866347178 -0.6448088971277177 55 55 53 0.36 92 0 94 0 95 0 98 0 
3021 -1.0852350686853391 0.0853992590535746 -0.6847786449846374 129 126 119 1.52 92 0 94 0 95 0 
3022 -1.0756285937924603 0.021585854150845574 -0.6908800413066483 124 122 118 0.32 92 0 94 0 95 0 
3023 -1.2149996331261739 0.7774826085330718 -0.607999500142173 92 85 84 0.49 92 0 94 0 95 0 98 0 
3024 -1.3677538314320798 1.843924398965027 -0.4596734725091518 145 157 182 0.42 92 0 94 0 95 0 98 0 
3025 -0.13852027097187877 -0.03348510514446379 -0.21316269739587068 45 68 93 0.43 92 0 94 0 95 0 
3026 -1.1724685985138734 0.44125613961420207 -0.6338389036634089 161 152 141 0.25 92 0 94 0 98 0 
3027 -1.1887307774690066 0.5479779638126059 -0.6148451026948316 164 152 139 0.56 92 0 94 0 98 0 
3028 -1.211606679210973 0.6050627324663718 -0.6056691950530473 163 150 138 0.75 92 0 94 0 95 0 98 0 
3029 -1.4555724855982932 1.9415649523507799 -0.43079978104116434 166 168 171 0.47 92 0 94 0 95 0 98 0 
3030 -1.1677983436353658 0.34244087634910825 -0.6172036144366264 141 136 133 0.35 92 0 94 0 95 0 
3031 -1.2501205052895166 0.7731294841746665 -0.557829267728962 147 144 141 0.44 92 0 94 0 95 0 
3032 -1.1177840500893688 0.053971984229777226 -0.6430954168496608 94 91 93 0.57 92 0 94 0 95 0 
3033 -1.2055849204134534 0.5109243960915004 -0.5834488347110875 142 130 126 0.18 92 0 94 0 95 0 98 0 
3034 -1.215602754997492 0.5582721804009863 -0.5745011257960857 151 142 137 0.66 92 0 94 0 95 0 98 0 
3035 -1.1007124052434283 -0.07750886603071594 -0.6555996908102579 132 132 129 1.07 92 0 94 0 95 0 
3036 -1.159383968282826 0.1892199286702887 -0.6206404314094964 136 136 133 0.23 92 0 94 0 95 0 
3037 -1.1970275700847879 0.470729163532988 -0.5735772140151885 148 139 131 0.69 92 0 95 0 98 0 
3038 -1.1127580712693792 -0.014727187086893245 -0.641724649754762 142 144 141 0.62 92 0 94 0 95 0 
3039 -1.2524613407700012 0.7053825704750656 -0.5443182594959377 160 156 147 0.33 92 0 94 0 98 0 
3040 -1.1309947570968022 0.0131483824521752 -0.6344409032576279 110 105 99 0.31 92 0 94 0 95 0 
3041 -1.4228647973970043 1.7069789530052346 -0.3723154072076986 162 175 189 0.87 92 0 94 0 98 0 
3042 -1.1112783321553887 -0.09381154328635621 -0.6369549851382472 131 125 119 0.52 92 0 94 0 95 0 
3043 -1.1590523939404016 0.10079259699045129 -0.6073456035496072 102 100 102 0.37 92 0 94 0 95 0 
3044 -1.2882429999450653 0.742492549933728 -0.5047644277853283 158 151 148 0.47 92 0 94 0 95 0 
3045 -1.1035285448254775 -0.17741157203892866 -0.6334136076182131 101 102 105 0.32 92 0 94 0 95 0 
3046 -1.3732750124651076 1.1649503633813274 -0.4409334819567421 146 133 136 1.12 92 0 94 0 95 0 98 0 
3047 -1.1491236453554983 0.04845064439968527 -0.5978003740041054 120 112 104 1.07 92 0 94 0 95 0 
3048 -1.1322523818822046 -0.03932194841551362 -0.6092019758775735 104 96 89 0.07 92 0 94 0 95 0 
3049 -0.7103510706426739 -0.14613642236255675 -0.4029822574701152 81 69 80 0.45 92 0 94 0 95 0 
3050 -1.4677095869090833 -0.12168255202249711 -0.8007655705075698 131 135 130 0.55 92 0 94 0 95 0 
3051 -1.5156376697784097 1.7813207519529242 -0.3251475006668325 90 95 103 0.55 92 0 94 0 95 0 98 0 
3052 -1.2434399216061922 0.42780722100027746 -0.5221653148675602 110 101 100 0.64 92 0 94 0 95 0 98 0 
3053 -1.396796845758621 -0.24460070399961387 -0.7848716487963743 95 95 86 0.54 92 0 94 0 95 0 
3054 -1.1341287395239292 -0.15097500191420177 -0.6051405733904254 106 103 98 0.57 92 0 94 0 95 0 
3055 0.7471609244255931 0.03821148639415983 0.5025450455249619 69 85 89 0.13 92 0 94 0 95 0 
3056 -1.3655752691057252 0.874235581600488 -0.4354422531550597 158 147 142 1.48 92 0 95 0 98 0 
3057 -0.28081423233482816 -0.10684668360143568 -0.10729177012297053 76 89 104 0.56 92 0 94 0 95 0 
3058 -1.3996563087035019 -0.1905416315836439 -0.737224301491707 56 70 60 0.48 92 0 94 0 95 0 
3059 0.9360145692415839 0.0409270704652398 0.6518601004540038 65 59 60 0.61 92 0 94 0 95 0 
3060 -1.1419251966166653 -0.19611484084001884 -0.5908614322362369 127 129 129 0.67 92 0 94 0 95 0 
3061 -1.4629670150646152 1.0763007612424191 -0.3981486922832447 187 188 190 0.42 92 0 94 0 95 0 98 0 
3062 -1.4266875669647743 1.0823476904260252 -0.37046023880323875 141 142 142 0.46 92 0 94 0 98 0 
3063 -1.4816584217727038 1.3461751035075697 -0.32128466773448205 151 138 139 0.42 92 0 94 0 95 0 
3064 -1.4205661311822995 -0.13834935837375384 -0.7258534442376621 101 112 116 0.71 92 0 94 0 95 0 
3065 -0.45931329295723977 -0.14329655051599421 -0.15901856985590568 60 49 55 0.33 92 0 94 0 95 0 
3066 -0.9445002357881194 -0.19128205348644012 -0.4450573099451973 69 75 85 1.38 92 0 94 0 95 0 
3067 -1.1704907173858896 -0.17031634982849653 -0.563070533117533 128 128 125 0.52 92 0 94 0 95 0 
3068 -1.5606155439943066 1.5821408796527854 -0.2310508344460087 178 168 165 0.43 92 0 94 0 98 0 
3069 -1.4568157273979017 1.0675875425442805 -0.3221277521789063 84 81 86 0.32 92 0 94 0 95 0 98 0 
3070 -1.4939652162133537 1.062918591729651 -0.34769687972134045 220 234 237 0.3 92 0 94 0 95 0 98 0 
3071 -1.5081468883689422 1.1182532754915822 -0.330266573016857 206 207 210 0.41 92 0 94 0 95 0 98 0 
3072 -1.640439371164153 1.8081437385001344 -0.1758722075492376 154 142 146 0.17 92 0 94 0 98 0 
3073 -1.3880393609061388 0.7232782129230724 -0.37708076903852694 159 150 139 0.39 92 0 94 0 95 0 98 0 
3074 -1.5385225687799107 1.346245072582868 -0.24736017913628605 157 149 148 0.36 92 0 95 0 98 0 
3075 -1.4146495390359637 0.818362184937141 -0.33381853583867205 159 146 138 1.09 92 0 94 0 95 0 98 0 
3076 -1.3205804716113951 0.35880172117408127 -0.41213699457212405 151 154 151 1.12 94 0 95 0 98 0 
3077 -1.5005727308647772 1.0541224191782654 -0.27707351500203115 131 123 111 0.46 92 0 94 0 95 0 98 0 
3078 -1.522568117041182 1.120504518925364 -0.2615463504253106 171 168 164 0.4 92 0 94 0 95 0 98 0 
3079 -1.1648469085147126 -0.30501383425149275 -0.5315997035917612 70 84 86 0.22 92 0 94 0 95 0 
3080 -0.8069316942339367 -0.1602754052316142 -0.24774487374506204 58 84 97 0.57 92 0 94 0 95 0 
3081 -1.216919809008283 -0.30858273881190734 -0.5430336737531554 84 104 103 0.25 92 0 94 0 95 0 
3082 -0.9023945177094992 -0.8156285666282563 -0.3356629272028653 37 53 53 1.28 92 0 94 0 95 0 
3083 -2.0180043101953085 0.20924210368486063 -0.3588463853095416 18 24 26 0.16 92 0 94 0 95 0 
3084 -2.0391267884712505 0.20226706914824577 -0.36551366372925753 63 70 83 0.27 92 0 94 0 95 0 98 0 
3085 -2.0587082522824582 0.20345871167156337 -0.36858558856294166 85 109 113 0.48 92 0 94 0 95 0 
3086 -2.0791915283434115 0.19957397427850698 -0.37199750257600206 39 43 50 0.18 92 0 94 0 95 0 
3087 -1.819553234488923 -0.704753140139686 -0.7946034274101827 54 58 67 0.38 92 0 94 0 95 0 
3088 -1.2705560695043856 -0.7977825929400579 -0.3971902280941557 51 51 31 0.49 92 0 94 0 95 0 
3089 -2.165501153751191 0.18591226463182786 -0.42352396294134254 16 27 31 0.28 92 0 94 0 95 0 
3090 -1.8316285564070305 -0.7046751305900838 -0.7877083869342809 88 70 99 0.98 92 0 94 0 95 0 
3091 -2.1462118608163694 0.17970106585685452 -0.3857648789428809 20 20 24 0.69 92 0 94 0 95 0 
3092 -1.7305264778750573 -0.387312603721522 -0.45069522616833924 14 19 15 1.55 92 0 94 0 95 0 
3093 -2.302633089645157 0.43797278326207634 -0.3102754684855378 29 32 35 0.31 92 0 94 0 95 0 98 0 
3094 -1.8175239821399845 -0.732297241721543 -0.7674327014088043 71 52 64 0.15 92 0 94 0 95 0 
3095 -2.36472009954202 0.3924724145714873 -0.37457063523533884 83 69 94 0.4 92 0 94 0 95 0 
3096 -2.1718263006559457 0.16285787673952257 -0.34981584103266616 56 58 64 0.5 92 0 94 0 95 0 98 0 
3097 -2.2198971912374104 0.15897885232899567 -0.38617260492674177 63 69 69 0.25 92 0 94 0 95 0 98 0 
3098 -1.8173171819093492 -0.37179701326457004 -0.44445651975068 23 31 21 0.8 92 0 94 0 95 0 98 0 
3099 -1.8697065112244111 -0.6905869642781772 -0.7448057161182766 16 24 22 0.54 92 0 94 0 95 0 
3100 -1.5297705360883582 -0.6574094077618213 -0.4116542091977413 16 27 19 0.71 92 0 94 0 95 0 
3101 -1.2726540024535138 -0.9023685970938178 -0.36722369005396627 30 43 34 0.77 92 0 94 0 95 0 
3102 -1.7777438456525705 -0.4066042070165128 -0.425465486572532 31 38 30 1.26 92 0 94 0 95 0 98 0 
3103 -1.8472391082812598 -0.7373846215953692 -0.7496284328062979 102 61 80 1.01 92 0 94 0 95 0 
3104 -1.2600144181404334 -0.9179138089452807 -0.3360259423993486 28 49 42 0.28 92 0 94 0 95 0 
3105 -2.285657938979766 -0.0523234994741002 -0.5433058351432489 72 56 76 0.84 92 0 94 0 95 0 
3106 -1.8999683618998728 -0.8132102388979303 -0.8325512658335961 122 145 177 0.57 92 0 94 0 95 0 
3107 -1.860258540569598 -0.37155216853283624 -0.41119711400004233 47 45 45 1.1 92 0 94 0 95 0 98 0 
3108 -1.2760283294960748 -0.9100205713828065 -0.3211009039807853 92 84 50 0.85 92 0 94 0 95 0 
3109 -1.2393303517579977 -0.9421576473777298 -0.30359205947509116 44 77 57 0.38 92 0 94 0 95 0 
3110 -1.8429904233126337 -0.4357194728187246 -0.42908378584943874 98 99 98 0.36 92 0 94 0 95 0 98 0 
3111 -1.860123015131991 -0.4339872495969479 -0.4421497373187342 82 70 72 0.55 92 0 94 0 95 0 
3112 -1.8803492484734097 -0.8276608040278546 -0.8094717853251736 109 52 62 0.61 92 0 94 0 95 0 
3113 -1.9177851105422583 -0.8159673023514411 -0.8347656009235616 139 153 181 0.77 92 0 94 0 95 0 
3114 -1.7986923201088203 -0.473922511847902 -0.4157026830328472 78 69 66 0.8 92 0 94 0 95 0 98 0 
3115 -1.9296905205838502 -0.8082254277651091 -0.8311301043230332 103 85 112 1.09 92 0 94 0 95 0 
3116 -1.8442083621378063 -0.4693867852995848 -0.44591203138919 89 63 67 0.2 92 0 94 0 95 0 
3117 -1.520389137090465 -0.7377223801977693 -0.37601207288279914 22 37 22 1.33 92 0 94 0 95 0 
3118 -1.270665246342293 -0.9597655031783343 -0.32477981067805795 31 50 25 1.32 92 0 94 0 95 0 
3119 -1.8752447813204078 -0.8348303378429736 -0.795100073497816 127 130 151 0.4 92 0 94 0 95 0 
3120 -1.5532026635807517 -0.7380546548843914 -0.36051318962173307 34 37 37 1.0 92 0 94 0 95 0 
3121 -1.5461928976936354 -0.7544324104105471 -0.36274972740469513 36 35 36 0.41 92 0 94 0 95 0 
3122 -1.4089706530392603 -0.871611859811243 -0.3208425819741896 94 120 115 0.58 92 0 94 0 95 0 
3123 -1.4672149876793856 -0.8172330408655377 -0.3301856923872981 43 48 45 0.68 92 0 94 0 95 0 
3124 -1.4908322118658281 -0.8040060304882035 -0.34342598681043124 43 40 41 0.55 92 0 94 0 95 0 
3125 -1.8678924060334472 -0.2559594723815284 -1.2815025499400052 22 24 23 0.4 94 0 95 0 98 0 
3126 -1.0340190687897497 0.7885173987158779 -0.769148131710534 119 139 149 0.29 94 0 95 0 98 0 
3127 -1.0540534262171974 0.636653555236923 -0.7774201047758833 166 167 169 0.52 94 0 95 0 98 0 
3128 -1.3961175995942983 2.5413995639695175 -0.5816291285736725 97 75 67 0.24 94 0 95 0 98 0 
3129 -1.0534650981040503 0.7023022727217691 -0.7240773640888443 125 144 153 0.48 94 0 95 0 98 0 
3130 -1.1402050760727702 0.8261297910381079 -0.7075064279451864 79 76 71 0.54 94 0 95 0 98 0 
3131 -1.148277614620934 0.8686715919654149 -0.7026536511650843 139 142 149 0.32 94 0 95 0 98 0 
3132 -1.0959607790067163 0.6113721423759879 -0.7201463878994678 158 159 166 0.55 94 0 95 0 98 0 
3133 -1.0681227178787045 0.4899866181334951 -0.7223146978067794 129 124 120 1.38 94 0 95 0 98 0 
3134 -1.0774977735984288 0.6885471203817373 -0.6908163457783298 150 164 183 0.32 94 0 95 0 98 0 
3135 -1.0997223162581415 0.6704874296764529 -0.6711939498189099 141 163 172 0.4 94 0 95 0 98 0 
3136 -1.1104836898668404 0.7354700523031688 -0.650592151448874 165 180 191 0.32 94 0 95 0 98 0 
3137 -1.1915889069565706 0.8917252997961248 -0.6486117035020937 129 121 121 0.2 94 0 95 0 98 0 
3138 -1.1609302653581328 0.5588126694804081 -0.6570560255794269 133 137 138 0.45 94 0 95 0 98 0 
3139 -1.149152246722904 0.7757960400417225 -0.6077397003418583 147 165 177 0.33 94 0 95 0 98 0 
3140 -1.2259826948707402 0.8866668316231057 -0.5916330417289992 147 136 132 0.39 94 0 95 0 98 0 
3141 -1.2697535680855476 1.0230258705629103 -0.5671435133878271 157 152 147 0.48 94 0 95 0 98 0 
3142 -1.2082150423412104 0.7847477501957855 -0.5844638192344314 199 209 215 0.95 94 0 95 0 98 0 
3143 -1.367012078547345 1.6783849704805505 -0.43472993054476805 166 187 206 0.27 94 0 95 0 98 0 
3144 -1.373536662699809 1.748646310033549 -0.4150612115088994 220 240 248 0.49 94 0 95 0 98 0 
3145 -1.2694954490265653 0.9472531598854123 -0.5531090149296722 160 152 149 0.99 94 0 95 0 98 0 
3146 -1.394392626347512 1.8037057047292004 -0.4026467269481817 181 204 224 0.46 94 0 95 0 98 0 
3147 -1.5136648534976505 2.002064695352649 -0.36119115289503045 170 173 174 0.54 94 0 95 0 98 0 
3148 -1.4361536375980937 1.767180704036069 -0.3543093686269094 169 185 203 0.37 94 0 95 0 98 0 
3149 -1.3618178053642178 1.1008420706221602 -0.46071354518852603 117 125 136 0.22 94 0 95 0 98 0 
3150 -1.280740152513522 0.675109631642741 -0.5043109756811754 136 139 142 0.41 94 0 95 0 98 0 
3151 -1.2260132221570732 0.3779532242224646 -0.5344214418143989 91 89 90 0.35 94 0 95 0 98 0 
3152 -1.4794178471593245 1.1358984226905986 -0.38298072994447185 213 211 212 0.62 94 0 95 0 98 0 
3153 -1.2839236577830722 0.3520754845017884 -0.4706992670417902 83 86 92 0.23 94 0 95 0 98 0 
3154 -1.309299876582473 0.4542743547252597 -0.4487110990485472 158 151 141 0.82 94 0 95 0 98 0 
3155 -1.3387302501005172 0.5647723016298005 -0.41813405946512017 174 164 152 0.14 94 0 95 0 98 0 
3156 -1.3719114712685472 0.6615411503590758 -0.3963836421868714 148 138 128 0.15 94 0 95 0 98 0 
3157 -1.318845456741339 0.42371667859234474 -0.4312423474691989 144 137 129 0.27 94 0 95 0 98 0 
3158 -1.4625053456131831 0.992926829044624 -0.287801376442115 181 174 166 1.43 94 0 95 0 98 0 
3159 -1.3393709314768873 0.4273098402407247 -0.40617346398970255 90 82 83 0.46 94 0 95 0 98 0 
3160 -1.649101325990017 1.6512907555634937 -0.1330101125357961 191 180 171 1.14 94 0 95 0 98 0 
3161 -1.3469035590815674 0.3723515468926861 -0.4207341956499975 144 146 145 0.32 94 0 95 0 98 0 
3162 -1.4149950899358033 0.6728546278311012 -0.34488067025664315 43 37 37 0.55 94 0 95 0 98 0 
