# 3D point list with one line of data per point:
#   POINT3D_ID, X, Y, Z, R, G, B, ERROR, TRACK[] as (IMAGE_ID, POINT2D_IDX)
# Number of points: 450, mean track length: 5.01
1310 -0.8565791067684889 -0.5915189968740169 -0.015526216033771467 79 79 81 0.5 51 0 53 0 54 0 
1311 -0.9452441922947815 -0.5928317073050714 -0.032957666409425546 108 102 99 1.73 51 0 53 0 54 0 
1312 -0.20333760831679887 -0.6533536034190219 -0.03555171427188197 45 35 38 0.15 51 0 57 0 59 0 
1313 -0.23128942686336734 -0.6569489126610859 -0.038602876745853276 52 41 52 0.42 51 0 53 0 54 0 57 0 58 0 59 0 63 0 65 0 
1314 -0.001255838630237316 -0.6823076115463353 -0.02516490448634756 61 58 60 0.49 51 0 53 0 54 0 57 0 58 0 59 0 63 0 64 0 65 0 
1315 -0.3198633223904976 -0.657159350847594 -0.034064713710089345 43 32 37 1.8 51 0 53 0 54 0 57 0 58 0 59 0 63 0 64 0 65 0 
1316 0.11158769373986044 -0.7022405361521785 -0.019641339566825344 66 71 59 1.41 51 0 53 0 54 0 57 0 58 0 59 0 63 0 64 0 65 0 
1317 -0.16270717911692656 -0.6785398176535327 -0.039249497024308244 58 46 53 0.56 51 0 53 0 54 0 57 0 58 0 59 0 
1318 -0.24367900372942028 -0.6759221996063971 -0.03968029769579884 49 36 40 1.3 51 0 53 0 54 0 57 0 58 0 59 0 63 0 64 0 65 0 
1319 -0.21711214669027257 -0.6790456820984916 -0.039646181682145176 72 67 72 0.56 51 0 53 0 57 0 63 0 65 0 
1320 -0.9332097511535185 -0.6208167105554634 -0.008209094046814247 108 101 103 0.39 51 0 53 0 54 0 57 0 
1321 0.07922690235140162 -0.7101665999354371 -0.014028014098115271 87 101 109 0.62 51 0 53 0 54 0 57 0 58 0 59 0 
1322 -0.8951094033680639 -0.6354539444688688 -0.01123283336108738 87 90 85 0.57 51 0 53 0 54 0 
1323 0.07975378578836534 -0.7216932031441983 0.15128986328718486 127 145 167 0.35 51 0 54 0 57 0 58 0 
1324 -0.35373721723351276 -0.7024597486807705 -0.03127951895626757 37 32 36 1.62 51 0 53 0 54 0 57 0 58 0 59 0 63 0 
1325 -0.5375372752790136 -0.6918420727535659 -0.018084892065998615 43 48 53 0.34 57 0 58 0 59 0 64 0 65 0 
1326 -0.07594806088010464 -0.7603160422342201 -0.020715289600423903 100 98 111 3.1 51 0 53 0 63 0 64 0 
1327 -0.37687943748497554 0.7388268925950756 0.033249700312506514 169 165 163 0.29 53 0 57 0 63 0 
1328 -0.04880600545762065 0.85440323279168 0.028867720726654778 165 164 167 0.29 53 0 57 0 64 0 
1329 0.11870716607790899 0.9113281151241146 0.029111157237502017 160 164 169 0.58 53 0 63 0 65 0 
1330 0.22804710944780604 0.9519074083730767 0.027096908659649532 167 160 162 0.71 53 0 63 0 64 0 
1331 -0.9746247810375385 0.548899709220108 0.015068330510115135 181 176 176 1.65 53 0 57 0 58 0 
1332 -0.3370495749467072 0.7402380573995528 0.03390590413276784 176 166 162 0.21 53 0 57 0 58 0 
1333 0.07045896414651259 0.8752056219238422 0.030005719380189255 126 134 147 0.67 53 0 57 0 64 0 65 0 
1334 -0.6231714506985566 0.6489736636865859 0.01901365430615698 179 171 167 1.43 53 0 57 0 58 0 63 0 
1335 -0.5286896491813017 0.6812167929473292 0.0181942857392432 170 157 152 0.27 53 0 57 0 58 0 
1336 -0.2252545728634177 0.7684209224930278 0.031297675928833035 136 148 149 0.35 53 0 57 0 58 0 63 0 64 0 65 0 
1337 0.1537446164613272 0.9001655615612498 0.02733780667640584 106 110 125 0.28 53 0 64 0 65 0 
1338 -0.13325265155589994 0.7938690398502748 0.028038237473180017 132 139 158 0.54 53 0 57 0 58 0 63 0 64 0 65 0 
1339 0.11689585122749524 0.8836457785628493 0.02290303413218875 147 145 154 0.33 53 0 64 0 65 0 
1340 -0.18251520215428824 0.7747834081340295 0.02757168589499681 180 180 178 3.63 53 0 57 0 58 0 64 0 
1341 -0.08740773145144787 0.8035543682506252 0.02958383749316984 137 144 145 0.47 53 0 57 0 58 0 63 0 64 0 65 0 
1342 -0.732553283211626 0.5981923181883815 0.020213086145751236 164 156 154 0.62 53 0 57 0 59 0 
1343 -0.35291462032992965 0.7074550716960146 0.030175212433339427 182 174 171 0.26 53 0 57 0 58 0 
1344 -0.3018863692320057 0.7250382874134667 0.03025785983138274 155 153 156 0.62 53 0 57 0 58 0 63 0 64 0 65 0 
1345 -0.5469804316145155 0.6360500133414142 0.03640985052631507 158 149 147 0.24 53 0 57 0 58 0 
1346 -0.7937671150907998 0.5631180750136406 0.02546342202333829 171 168 167 0.64 53 0 57 0 58 0 
1347 -0.2712636149074489 0.7149933475601908 0.04053615291743995 196 185 175 0.89 53 0 57 0 58 0 
1348 -0.51463047265056 0.6428506596501538 0.02620590009320134 178 176 176 1.06 53 0 57 0 58 0 64 0 
1349 0.0354413212007037 0.8190952742455782 0.026383047691237893 119 121 129 0.84 53 0 57 0 58 0 63 0 65 0 
1350 -0.8169253338178507 0.5552379785503252 0.010720500819074053 174 169 168 1.76 53 0 57 0 58 0 
1351 -0.32835825383804423 0.697160099949419 0.019974362842384963 158 130 122 0.77 53 0 57 0 58 0 
1352 -0.12977758465062617 0.7566378323551797 0.028930249157063326 149 145 147 0.73 53 0 57 0 63 0 64 0 65 0 
1353 0.10729393315684987 0.8316316599612152 0.03111849871109862 123 132 143 3.11 53 0 57 0 63 0 
1354 0.20307244345220232 0.8702622699636176 0.023430365433468436 157 154 154 1.08 53 0 57 0 64 0 
1355 -0.688925864304553 0.5839670230716623 0.020196177605876775 190 184 183 0.27 53 0 57 0 58 0 59 0 
1356 -0.5290301758729586 0.645114604616924 0.00041683255268476493 176 168 166 0.58 53 0 57 0 58 0 
1357 0.1706938012185878 0.8476801328759798 0.028471645301495485 129 126 134 0.45 53 0 63 0 65 0 
1358 -0.5642498739905838 0.6103784590675772 0.028264824223262153 153 155 158 2.81 53 0 57 0 58 0 59 0 
1359 -0.19113681530995913 0.7302794353280591 0.026051228862226106 161 165 166 1.22 53 0 57 0 58 0 63 0 64 0 
1360 -0.0985250071254089 0.7563193915420294 0.026031437121210033 148 142 142 0.86 53 0 57 0 58 0 63 0 64 0 65 0 
1361 0.13703512452844313 0.833567770700496 0.028795598076954754 127 129 136 0.58 53 0 57 0 64 0 
1362 -0.6990825178710176 0.56321572536478 0.02390717139547105 159 153 150 0.3 53 0 57 0 58 0 59 0 
1363 -0.15856925077533807 0.7301953213877819 0.02623450086146728 157 148 151 3.29 53 0 57 0 64 0 
1364 -0.8128441530026247 0.5382554036735356 0.00979675964380422 184 179 177 0.31 53 0 57 0 58 0 
1365 0.03753513991497287 0.7862908151285202 0.027323573874926455 130 123 129 0.73 53 0 57 0 58 0 63 0 65 0 
1366 -0.9126018759803594 0.4962404852973606 0.024886827844514237 172 169 164 0.47 53 0 57 0 58 0 
1367 -0.18052656991691327 0.7089260908870352 0.03040805174127703 177 156 144 0.36 53 0 57 0 58 0 
1368 -0.7207996380675901 0.5462555691708413 0.02489886369765082 176 173 171 0.75 53 0 57 0 58 0 59 0 
1369 -0.5001905652315206 0.6121636406945332 0.02665315041082117 181 180 177 0.65 53 0 57 0 58 0 59 0 
1370 0.21118522528810368 0.8328024918929084 0.028894792373175715 121 129 136 0.48 53 0 57 0 63 0 64 0 65 0 
1371 -0.08712877005190123 0.7344166500064082 0.023459458088018526 171 175 174 0.42 53 0 57 0 63 0 
1372 -0.738697903623056 0.5286902933339555 0.02670293706026805 167 162 161 1.2 53 0 57 0 58 0 59 0 
1373 -0.06238135444187265 0.7411317866592628 0.01296216561979091 169 168 167 0.59 53 0 57 0 63 0 
1374 0.06439959648227084 0.769636566176318 0.028472724408777905 141 150 162 0.58 53 0 57 0 58 0 63 0 64 0 
1375 -0.7123864619345375 0.5280704133455623 0.027315634914491627 191 190 190 0.25 53 0 57 0 59 0 
1376 -0.10812715105894849 0.7111039766039586 0.027168920583658718 167 150 143 1.45 53 0 57 0 58 0 63 0 64 0 65 0 
1377 0.16776269275847777 0.7955242498544237 0.027955412740165553 164 147 142 0.72 53 0 57 0 63 0 
1378 -0.01932938620315494 0.7320571718077424 0.02969612156693091 159 151 151 0.41 53 0 57 0 58 0 
1379 -0.8525555464592974 0.4895614139768903 0.014510708080265111 166 167 167 0.9 53 0 57 0 58 0 
1380 -0.28635849750517656 0.6516749969370155 0.018296577557230354 159 151 149 0.53 53 0 57 0 58 0 64 0 65 0 
1381 -0.22915357095103872 0.6660293122569525 0.024696317144377478 187 186 187 0.13 53 0 57 0 58 0 
1382 0.004389716212063632 0.7347611402189684 0.023965290544937234 131 128 126 0.41 53 0 57 0 65 0 
1383 -0.7284618582918507 0.5109696954832923 0.029841382563617902 160 152 148 0.44 53 0 57 0 59 0 
1384 -0.8924997022422558 0.4649128996650756 0.025971739739227173 178 189 196 0.45 53 0 57 0 58 0 
1385 -0.034996757871691986 0.7148562896946464 0.025805127976071374 141 133 133 0.64 53 0 57 0 58 0 63 0 65 0 
1386 0.018524905494114563 0.7264004755054321 0.03021339808032053 145 120 116 0.34 53 0 57 0 58 0 63 0 64 0 
1387 0.2498725590675881 0.7993180056636724 0.024615054895436028 106 112 127 1.18 53 0 57 0 58 0 63 0 64 0 
1388 -0.239209554870971 0.6539599393431152 0.013871309013940625 175 169 165 2.09 53 0 57 0 63 0 64 0 
1389 -0.11171471368252095 0.6856750039631363 0.02346325568267238 150 156 160 0.26 53 0 57 0 58 0 65 0 
1390 -0.05568515735730728 0.7014733458865399 0.020652899731053997 148 144 147 0.58 53 0 57 0 58 0 
1391 0.18258622868210783 0.7709006233215518 0.02698810880530611 94 89 98 0.54 53 0 57 0 58 0 63 0 64 0 65 0 
1392 -0.6613651817088372 0.5158400265690206 0.023369049823710686 150 137 134 0.52 53 0 57 0 59 0 
1393 -0.30089764538754904 0.6222269546759167 0.01599485131384104 159 139 137 0.71 53 0 57 0 58 0 59 0 
1394 -0.029141451493678472 0.698567789630749 0.022357574815556447 187 187 184 0.61 53 0 57 0 58 0 63 0 
1395 -0.010958902606801657 0.7031186854036031 0.02015342366063555 154 156 156 0.85 53 0 57 0 58 0 63 0 64 0 65 0 
1396 0.03500943093061881 0.7165062191878961 0.02312063310801804 156 156 158 1.24 53 0 57 0 58 0 
1397 0.22640015153992665 0.7738790387984158 0.025496330055313488 140 148 156 0.55 53 0 57 0 58 0 63 0 64 0 65 0 
1398 0.33574941286959237 0.8068855694813908 0.023762457591986808 85 95 112 0.75 53 0 57 0 58 0 63 0 64 0 65 0 
1399 0.7555223072291157 0.9354644498741289 0.024940765545901078 162 165 170 0.65 53 0 57 0 63 0 
1400 -0.6900454813871948 0.49866695271172495 0.026011123654842372 172 166 165 0.35 53 0 57 0 59 0 
1401 -0.3369259674375278 0.5969685095941204 0.029725373133849597 154 141 143 0.47 53 0 57 0 59 0 
1402 -0.4406276885020107 0.570133470902837 0.020034553171439207 150 152 148 1.1 53 0 57 0 58 0 59 0 
1403 0.01971033343776385 0.7013383019814357 0.020370738336996874 177 167 162 0.41 53 0 57 0 63 0 
1404 0.26578628647200886 0.7652219686297079 0.0363994635362932 159 158 160 0.87 53 0 57 0 58 0 63 0 
1405 0.3174615126234003 0.787628681590866 0.023493673973708162 174 131 115 0.44 53 0 57 0 58 0 63 0 64 0 65 0 
1406 0.09505284455771645 0.7147035350416435 0.02594658360056279 158 139 135 0.36 53 0 63 0 64 0 
1407 0.5486683085179467 0.8547284587356783 0.023096242599522032 164 160 161 0.26 53 0 57 0 63 0 64 0 65 0 
1408 -0.058757423895872074 0.6674994030354333 0.022252422813190398 162 162 163 0.65 53 0 57 0 64 0 65 0 
1409 0.4195905762642683 0.8107379838929605 0.025352844421238308 173 161 154 0.5 53 0 57 0 58 0 63 0 64 0 65 0 
1410 -0.33235111727764133 0.596186325424551 0.005532858591973389 145 131 126 1.46 53 0 57 0 58 0 
1411 -0.21586527679236833 0.6200414483562711 0.020242993812230825 168 159 156 0.78 53 0 57 0 58 0 63 0 64 0 
1412 -0.3858005690776626 0.56650241882208 0.02603301027338145 165 137 127 0.32 53 0 57 0 58 0 59 0 
1413 -0.27118863333862714 0.6031995649671043 0.019788498270006727 176 166 161 1.5 53 0 57 0 59 0 64 0 
1414 -0.11073421884108803 0.6453510242515772 0.022369762398699367 134 93 90 0.48 53 0 57 0 58 0 59 0 63 0 64 0 65 0 
1415 0.09424641096195308 0.7004345426509897 0.021769765422105847 137 116 115 1.3 53 0 57 0 58 0 63 0 64 0 
1416 0.7856648121267187 0.9051932753801966 0.02309802935485239 155 144 144 0.45 53 0 57 0 63 0 
1417 -0.22656842867767762 0.6042759544710186 0.020090396863712945 167 169 174 0.49 53 0 57 0 58 0 
1418 0.04103115958067516 0.6813091150783903 0.020080521393328832 163 159 158 0.36 53 0 57 0 63 0 64 0 65 0 
1419 -0.18317457518948085 0.6030798520713694 0.023162800226269153 155 158 158 1.18 53 0 57 0 58 0 59 0 
1420 -0.07902931934229207 0.6353124981154465 0.019997134667646188 166 159 157 0.41 53 0 57 0 58 0 59 0 63 0 
1421 0.8361631855933529 0.9051723952619606 0.022389213935674723 109 114 131 0.16 53 0 57 0 63 0 
1422 -0.6018906304616987 0.4887200562475669 0.020871284155989045 156 161 164 0.45 53 0 54 0 57 0 59 0 
1423 -0.5531808174668646 0.5011443580192865 0.02119259176977839 175 168 162 0.54 53 0 54 0 57 0 59 0 
1424 0.7159244948988632 0.8624336010018974 0.025361113758944454 173 175 174 0.58 53 0 57 0 63 0 65 0 
1425 -0.34367229801173577 0.5579713601533145 0.014483661241404322 149 144 150 0.71 53 0 57 0 59 0 
1426 -0.226429726497564 0.5889649357950701 0.01893053757887242 140 126 128 0.35 53 0 54 0 57 0 58 0 59 0 
1427 -0.4591731924043275 0.5194320498714289 0.020473726834602468 160 141 135 0.53 53 0 54 0 57 0 58 0 59 0 
1428 0.25846430019080635 0.7196104266977426 0.025109871623023805 135 135 135 0.6 53 0 57 0 63 0 64 0 65 0 
1429 -0.14457161264444307 0.6031638194033211 0.01891450377922932 146 135 132 0.68 53 0 54 0 57 0 59 0 
1430 0.04553495397268292 0.6538001370700155 0.021136343290197424 150 158 162 0.19 53 0 57 0 58 0 59 0 63 0 
1431 -0.48683476142585114 0.5074930535634072 0.01518746838462226 141 138 137 0.97 53 0 54 0 57 0 58 0 59 0 63 0 
1432 -0.11396240275775726 0.6050246375511483 0.02046589453380543 171 159 153 0.32 53 0 54 0 57 0 58 0 59 0 
1433 -0.09065857729366966 0.6112019125237989 0.023327564754915375 98 97 105 0.2 53 0 63 0 64 0 65 0 
1434 -4.228023737962161e-05 0.6358937073277433 0.020408601492802214 137 142 144 0.28 53 0 57 0 59 0 
1435 -0.6452751482770689 0.4576309143197687 0.018513878807588258 141 134 134 0.5 53 0 54 0 57 0 58 0 
1436 -0.4037873680897487 0.5174011290770248 0.02739367996806319 164 166 169 0.58 53 0 54 0 57 0 59 0 
1437 0.5894785004332992 0.7993485278017061 0.023439670854317418 117 97 98 0.35 53 0 57 0 58 0 63 0 64 0 65 0 
1438 -0.5862505942350198 0.4540312231743134 0.04719426783107772 157 142 138 2.18 53 0 57 0 59 0 
1439 -0.21541313469678075 0.5711220162924522 0.01844388820748577 153 160 163 1.0 53 0 54 0 57 0 58 0 59 0 63 0 64 0 65 0 
1440 -0.32528589427331717 0.5366728468443969 0.0203222891483823 173 166 164 0.44 53 0 54 0 57 0 59 0 64 0 
1441 -0.43845842898572956 0.5056164697197418 0.017451620446027105 178 172 168 1.07 53 0 54 0 57 0 58 0 59 0 
1442 -0.29946432780711574 0.5414154086121901 0.020360102278911274 155 150 152 0.51 53 0 54 0 57 0 59 0 
1443 -0.3557688617868778 0.5331597986369565 0.0013256819259632735 177 170 167 1.43 53 0 57 0 58 0 59 0 
1444 -0.11618096882016471 0.5839701624687594 0.023117465552611183 134 137 143 0.72 53 0 54 0 57 0 58 0 59 0 
1445 -0.14232277458909315 0.5713833060298785 0.018792222939212788 155 150 150 0.64 53 0 54 0 57 0 58 0 59 0 63 0 
1446 -0.08272854415312147 0.5819265643669387 0.021088729710295073 116 114 119 0.37 53 0 64 0 65 0 
1447 -0.28745616752695935 0.5236297910627665 0.018295305319264044 174 169 167 0.39 53 0 54 0 57 0 59 0 
1448 -0.13589233093188713 0.55694187533054 0.020024533570138336 163 147 140 0.62 53 0 57 0 58 0 59 0 
1449 0.4001938322847538 0.707519874324301 0.018713149341670787 167 166 168 0.66 53 0 54 0 57 0 58 0 63 0 64 0 
1450 -0.009959014194661053 0.5922752708726629 0.01953636897732669 115 100 109 0.55 53 0 54 0 57 0 58 0 59 0 63 0 64 0 65 0 
1451 0.6438560893248311 0.7749307142155935 0.013819205654523214 145 146 153 1.31 53 0 54 0 57 0 58 0 63 0 64 0 65 0 
1452 -0.5126190615356823 0.4549789519781902 0.022791872061360463 147 126 120 0.39 53 0 54 0 57 0 59 0 
1453 -0.2306932531048721 0.5296780611526852 0.013520088199418412 179 172 172 0.33 53 0 54 0 57 0 58 0 59 0 
1454 -0.04665758551328425 0.5751957767437028 0.013533753419211703 161 150 149 0.58 53 0 54 0 57 0 58 0 59 0 
1455 0.7191343826827437 0.7887953870458404 0.014912773096155352 167 156 153 1.21 53 0 54 0 57 0 58 0 63 0 64 0 65 0 
1456 0.5948145304165466 0.7448278946937834 0.01973634779190525 134 118 126 0.41 53 0 54 0 57 0 63 0 64 0 65 0 
1457 -0.5353729395268897 0.44040974950630557 0.022384923248983668 179 177 172 0.71 53 0 54 0 57 0 59 0 
1458 -0.14301243437299954 0.5358603020428221 0.021057047520470773 159 160 164 0.48 53 0 54 0 57 0 59 0 63 0 64 0 65 0 
1459 -0.7118684714933919 0.3884031606076859 0.021407685075081062 145 133 130 0.24 53 0 54 0 57 0 58 0 59 0 
1460 -0.12305575254128087 0.5372755645370189 0.02204401771149933 169 158 155 1.64 53 0 54 0 57 0 
1461 0.8221507227677292 0.7909096308609547 0.020982387695632543 115 108 119 0.39 53 0 54 0 57 0 58 0 63 0 64 0 65 0 
1462 0.9460631672746413 0.826724063646705 0.020469668742467917 106 110 120 0.41 53 0 54 0 57 0 63 0 
1463 -0.41653224909153586 0.45583381934400186 0.02309558377808152 177 186 190 0.59 53 0 54 0 57 0 58 0 59 0 
1464 0.8859686762091974 0.80371874194866 0.020926474271231843 177 177 177 0.48 53 0 54 0 57 0 58 0 63 0 64 0 65 0 
1465 -0.32023086448041865 0.4709749640831991 0.025640508265833306 171 163 165 2.12 53 0 57 0 58 0 
1466 0.7432665949804877 0.7557905111058303 0.017631566545921018 143 129 133 0.63 53 0 54 0 57 0 58 0 63 0 64 0 65 0 
1467 0.7860352527612655 0.7649888225402723 0.021747274486028534 122 122 131 0.4 53 0 54 0 57 0 58 0 63 0 64 0 65 0 
1468 -0.5740662298381427 0.4077373534399657 0.02068759328143077 192 186 182 0.68 53 0 54 0 57 0 59 0 
1469 -0.13503966860757943 0.5208718642518466 0.0031041649758598577 179 181 184 1.19 53 0 54 0 57 0 
1470 -0.8979014819899519 0.32603379554797046 0.017332116823452592 146 138 139 0.47 53 0 54 0 57 0 
1471 0.12208277600357209 0.5764498720320803 0.017783470344992836 140 124 121 0.49 53 0 54 0 57 0 58 0 59 0 63 0 65 0 
1472 -0.613622701970786 0.3875828345162216 0.022755102418118067 199 203 204 0.37 53 0 54 0 57 0 
1473 0.054576302454363956 0.5569183673488312 0.017510067204127955 131 129 135 0.5 53 0 54 0 57 0 58 0 59 0 63 0 
1474 0.38995366707635104 0.6414820811698494 0.01857176371634628 185 177 174 1.32 53 0 54 0 57 0 58 0 63 0 64 0 65 0 
1475 0.1417356906586048 0.5727033861998312 0.014385902176358156 100 85 92 1.28 53 0 54 0 57 0 58 0 59 0 
1476 0.8981630939764209 0.768116400191214 0.01856256554618896 132 123 126 0.63 53 0 54 0 57 0 58 0 63 0 64 0 65 0 
1477 -0.6342559341245835 0.3737470800338601 0.021114338308290792 158 155 154 0.44 53 0 54 0 57 0 59 0 
1478 -0.5602007576726875 0.3917656902209344 0.02250526573795475 179 180 181 0.78 53 0 54 0 57 0 58 0 59 0 
1479 -0.2732351052384816 0.4687650210138182 0.006242710268620666 162 154 154 0.79 53 0 54 0 57 0 63 0 
1480 0.49334799412934904 0.658703154618054 0.017932080398465722 183 172 169 0.54 53 0 54 0 57 0 58 0 59 0 63 0 64 0 65 0 
1481 0.5178170222411321 0.6625474361064081 0.020021215696548245 164 165 164 1.53 53 0 54 0 57 0 58 0 59 0 64 0 
1482 -0.9818961493431676 0.29245015946972136 0.016445213014456117 96 89 98 0.37 53 0 54 0 57 0 
1483 -0.33580125683121803 0.44479733295411 0.012317412678582773 183 186 186 0.27 53 0 57 0 58 0 
1484 0.01836632803690108 0.5277537657133893 0.019402126396339536 151 155 158 0.64 53 0 54 0 57 0 
1485 -0.900646968538037 0.30856216616334325 0.016637402950524516 140 125 121 0.14 53 0 54 0 57 0 
1486 -0.307744628577044 0.44375186528510563 0.02029139632799226 186 185 184 0.38 53 0 54 0 57 0 59 0 
1487 0.7667081638198954 0.7200820752127957 0.01407262000688525 141 139 141 0.56 53 0 54 0 57 0 64 0 65 0 
1488 0.4680177895157561 0.6342848840682931 0.015361388053725111 166 166 163 1.49 53 0 57 0 59 0 63 0 64 0 65 0 
1489 -0.5631792928289924 0.3794698573257442 0.01179109732103889 155 140 138 0.21 53 0 54 0 57 0 
1490 -0.425492844334862 0.403449885835983 0.025309445212859494 120 114 121 1.01 53 0 54 0 57 0 58 0 
1491 0.9341118368439862 0.751843830040607 0.017158081939987246 152 135 137 0.45 53 0 54 0 57 0 58 0 63 0 65 0 
1492 -0.5381980068487174 0.376176088365958 0.021043365661485902 157 154 155 0.74 53 0 57 0 58 0 
1493 0.6004787843904584 0.6591283922917914 0.016538216197658828 147 155 161 0.75 53 0 54 0 57 0 58 0 59 0 63 0 64 0 65 0 
1494 0.27759527485043645 0.5680275793428271 0.028343415705202935 178 168 165 1.38 53 0 54 0 57 0 
1495 1.0683755912912125 0.7734574693530352 0.01834587910921437 117 128 135 0.54 53 0 54 0 57 0 63 0 
1496 -0.5816370162520539 0.36780125588018014 0.006259326833782497 165 156 152 1.71 53 0 54 0 57 0 
1497 0.34520727959495767 0.5860082295873479 0.013771932632969275 154 138 135 0.45 53 0 57 0 65 0 
1498 1.0036947338047608 0.7512596778860914 0.018412443369286935 110 105 112 0.64 53 0 54 0 57 0 63 0 64 0 65 0 
1499 -0.9507660498164031 0.2868275367109679 -0.0038842496114703806 179 166 158 1.98 53 0 54 0 57 0 
1500 0.7909070515640413 0.69347163714011 0.01958193043488632 168 174 175 2.37 53 0 63 0 65 0 
1501 -0.47667080127663675 0.3723481441154693 0.030193963187643336 163 160 162 1.35 53 0 54 0 57 0 58 0 
1502 -0.41452713869334096 0.39402162124050993 0.017017490623834508 150 139 140 0.98 53 0 54 0 57 0 59 0 
1503 -0.17929294049607386 0.4474997868126534 0.015986008500961102 170 162 164 0.33 53 0 54 0 57 0 58 0 59 0 63 0 
1504 1.1198772491507465 0.762833427444586 0.017989699484194377 166 163 163 0.44 53 0 54 0 57 0 58 0 63 0 64 0 
1505 1.1675836429751631 0.7731428516080763 0.016746693294773962 179 171 169 0.29 53 0 57 0 63 0 
1506 -0.3165177051446314 0.4035286651415471 0.00801117448831623 177 177 176 2.13 53 0 54 0 57 0 58 0 59 0 
1507 -0.9359434809287447 0.2636605155256178 0.012599950191524822 108 126 139 0.45 53 0 54 0 57 0 
1508 -0.8519272803441693 0.2720412044295966 0.028455266142324298 116 116 126 0.63 53 0 54 0 57 0 
1509 -0.3610992569095079 0.38474241004282955 0.011755821890275353 169 173 175 1.01 53 0 54 0 57 0 59 0 
1510 -0.2805456765784107 0.400067931608763 0.014152567080140344 179 178 177 0.72 53 0 54 0 57 0 58 0 59 0 
1511 0.9175055568570261 0.6930398207150992 0.007426261014152669 133 127 129 1.5 53 0 54 0 57 0 58 0 59 0 63 0 64 0 65 0 
1512 1.2192791239896152 0.7657480382138548 0.012584135171627375 155 165 162 0.23 53 0 57 0 63 0 
1513 -0.4227787972664141 0.3651192002423392 0.012876632362394336 164 150 146 0.72 53 0 54 0 57 0 59 0 
1514 -0.7942300654360714 0.27920802605417167 0.02028472478965626 189 187 187 0.29 53 0 54 0 57 0 
1515 -0.25015106295359574 0.39886718579846564 0.017605826032558003 161 150 152 0.4 53 0 54 0 57 0 
1516 0.1773406498779041 0.49690191387631016 0.018869288283592134 152 147 151 1.05 53 0 54 0 57 0 59 0 63 0 
1517 1.3267749802802327 0.7799383859003881 0.004437952404712675 163 159 161 1.08 53 0 54 0 57 0 63 0 
1518 -0.8296069406097184 0.2649279470303412 0.022330492309306615 113 109 114 1.06 53 0 54 0 57 0 
1519 -0.34504153030960516 0.3732163124988243 0.005373979053613365 180 179 180 0.44 53 0 54 0 57 0 59 0 
1520 0.8595508580876705 0.6541407996940545 0.011611008682691715 149 140 140 0.56 53 0 57 0 58 0 59 0 63 0 64 0 
1521 1.1497671859376384 0.7235326026443745 0.014275806047769679 149 142 143 0.59 53 0 54 0 57 0 58 0 59 0 63 0 64 0 
1522 -0.49441108931976663 0.33075976643211386 0.019545823875525503 159 147 147 0.85 53 0 54 0 57 0 58 0 
1523 0.6095858715655962 0.5877360115813433 0.01623643350315307 156 154 154 0.29 53 0 63 0 65 0 
1524 1.0885304963070879 0.6946594092687084 0.014112602122577478 163 170 172 0.88 53 0 57 0 58 0 64 0 
1525 -0.14983132801281018 0.39912243321265434 0.016304522465973914 176 175 175 0.77 53 0 54 0 57 0 58 0 59 0 
1526 0.13183530970322566 0.4620116748932435 0.017305667859791152 113 102 109 0.33 53 0 57 0 59 0 
1527 0.23149260629629553 0.48388385597632994 0.016027316522557955 153 140 138 1.63 53 0 54 0 57 0 63 0 65 0 
1528 0.43690822969303456 0.5324488136329093 0.013314762568274796 142 145 148 0.74 53 0 54 0 57 0 58 0 63 0 64 0 65 0 
1529 1.527367688078888 0.7718993917915893 0.040523435619915116 97 93 90 0.35 53 0 54 0 57 0 59 0 
1530 -0.4216032452781191 0.34024303865306155 0.0033413826363952737 164 159 153 1.33 53 0 54 0 57 0 59 0 
1531 0.16099749186130152 0.46221012411488577 0.014282680191694208 133 125 127 0.28 53 0 63 0 64 0 65 0 
1532 1.1054039804989308 0.6819077223548782 0.01183034495727786 137 135 139 0.72 53 0 54 0 57 0 58 0 59 0 63 0 65 0 
1533 -0.09742707614513624 0.3984620808732821 0.016725345113853374 157 136 130 1.25 53 0 54 0 57 0 58 0 59 0 63 0 
1534 -0.3893366928050402 0.3371299351019244 0.006154537674675664 151 150 154 0.95 53 0 54 0 57 0 58 0 59 0 
1535 -0.15611866919180606 0.3914002677289244 0.0006807004004452111 172 171 177 1.76 53 0 54 0 57 0 59 0 
1536 -0.11372305927711046 0.3992989678643111 0.008593888234434965 174 165 163 1.01 53 0 54 0 57 0 58 0 59 0 
1537 0.5092975675819388 0.5347151988313426 0.012471340510204376 185 182 180 0.57 53 0 54 0 57 0 58 0 59 0 63 0 64 0 65 0 
1538 -0.5307330825926165 0.30150770992905757 0.01292479702917082 164 157 153 0.48 53 0 54 0 57 0 58 0 59 0 
1539 0.6054892918098276 0.5555443646801277 0.012435698742233159 164 155 155 1.54 53 0 57 0 58 0 59 0 63 0 
1540 1.5198336471025822 0.7618208813975071 0.024563616993572346 68 60 57 1.74 53 0 57 0 59 0 63 0 
1541 -0.2821084605970899 0.3551162586423056 0.009457521036993155 166 156 158 0.92 53 0 54 0 57 0 59 0 
1542 0.8960039840436826 0.6174545780458813 0.012877166360865777 135 139 146 0.34 53 0 54 0 57 0 58 0 59 0 63 0 64 0 65 0 
1543 1.0172840335122202 0.6416751794910209 0.011073847548965121 162 167 168 0.8 53 0 57 0 58 0 59 0 63 0 64 0 65 0 
1544 1.469203008597023 0.7438164391119322 0.003217214322227102 177 167 156 0.48 53 0 54 0 57 0 59 0 
1545 0.06334808319799501 0.4136111343872169 0.023384068810946346 147 140 139 0.53 53 0 57 0 58 0 
1546 1.0690200988400331 0.6462596086752139 0.010445763862408475 124 118 128 0.34 53 0 54 0 57 0 59 0 63 0 65 0 
1547 -0.6301872314338488 0.262981049257943 0.02157363345721519 141 126 125 1.8 53 0 54 0 57 0 
1548 -0.5979726070012071 0.2697845934762709 0.011054285328707225 154 150 149 0.91 53 0 54 0 57 0 59 0 
1549 -0.2433377178844473 0.3428601189390775 0.009250578299381917 121 121 132 0.1 53 0 63 0 64 0 
1550 0.9881021798302583 0.6131154113145185 0.00943929864020232 166 150 151 0.37 53 0 54 0 57 0 58 0 59 0 64 0 
1551 -0.6570561923978446 0.2544159966615625 0.011993633490058997 150 144 145 0.6 53 0 54 0 57 0 58 0 59 0 
1552 -0.5822786981645864 0.2690201255424816 0.009091090962709769 141 142 147 0.31 53 0 54 0 57 0 
1553 -0.4033410814934 0.30113796437841717 0.017478909518705787 158 155 157 4.1 53 0 54 0 57 0 58 0 
1554 0.0008866056255751875 0.3865447786869743 0.011156830664763584 170 164 158 0.48 53 0 54 0 57 0 58 0 59 0 63 0 64 0 
1555 0.4424604669791594 0.48299348705404693 0.012145269152694649 154 144 140 0.55 53 0 54 0 57 0 58 0 63 0 65 0 
1556 0.705030141288538 0.5398713957699637 0.010035371748569721 154 147 147 0.82 53 0 57 0 58 0 63 0 65 0 
1557 -0.185252123780214 0.34195282519970777 0.008038453697012393 176 176 181 0.41 53 0 54 0 57 0 59 0 
1558 1.046874328879715 0.6054551379660964 0.008603656796088988 99 105 118 0.58 53 0 57 0 58 0 64 0 65 0 
1559 0.2575738854180246 0.4285209756578812 0.014573141401865053 129 131 135 0.51 53 0 54 0 57 0 58 0 63 0 64 0 
1560 -0.8750348493095451 0.20340469854766635 -0.0013511181694514374 153 143 144 0.56 53 0 57 0 58 0 
1561 0.2179019740136091 0.4186976122443667 0.013236872415613332 145 135 139 0.73 53 0 54 0 57 0 58 0 59 0 64 0 
1562 -0.37781810157653534 0.2895301959680083 0.013500028910943707 158 148 145 0.26 53 0 54 0 57 0 58 0 59 0 
1563 -0.31556482666222074 0.30066928852243363 0.01652530156079579 160 154 155 0.88 53 0 54 0 57 0 58 0 59 0 
1564 1.165177427576599 0.6168900168320075 0.0033184253118663243 176 169 167 1.74 53 0 57 0 58 0 59 0 63 0 64 0 65 0 
1565 -0.3524195214076532 0.2879927763757025 0.011242621739467884 164 152 152 0.58 53 0 54 0 57 0 58 0 59 0 63 0 
1566 0.3739669650903942 0.4381805419829637 0.010530930560114227 103 117 127 0.74 53 0 54 0 57 0 58 0 59 0 63 0 64 0 
1567 -0.25544044212485084 0.3023303407356677 0.019859491320475042 200 197 198 1.03 53 0 54 0 57 0 59 0 
1568 0.48681636836933806 0.4590608346973039 0.010935059575062134 183 179 177 0.55 53 0 54 0 57 0 58 0 65 0 
1569 1.5268738059231928 0.6719393948513075 0.0016168266550420363 189 186 183 0.39 53 0 57 0 59 0 
1570 -1.0345398779923884 0.1493153068594641 0.014091328330719577 158 157 157 0.41 53 0 54 0 57 0 
1571 -0.6181233606821256 0.22631090140922377 0.013010869381564927 156 143 143 0.64 53 0 54 0 57 0 58 0 59 0 
1572 -0.2688261929715686 0.2916890240752053 0.011039306848082742 170 163 162 1.1 53 0 54 0 57 0 59 0 
1573 0.3296333808688159 0.41037978124537183 0.010683722420518738 178 173 167 0.98 53 0 57 0 58 0 59 0 63 0 
1574 -0.3344476269274872 0.27588278608126543 0.01025379186094888 114 114 120 0.17 53 0 57 0 58 0 
1575 -0.2456744493767552 0.29144339642197165 0.011135962587629722 189 187 186 0.46 53 0 54 0 57 0 59 0 
1576 -0.16815991216956744 0.30585813623473107 0.01040820008266441 96 106 121 0.73 53 0 54 0 57 0 59 0 
1577 0.659775544225732 0.47166520960779984 0.01280443835382461 153 142 144 0.37 53 0 57 0 58 0 64 0 
1578 -0.7424335502441572 0.1958731963884121 0.008789667323248374 174 153 147 0.27 53 0 54 0 57 0 
1579 0.26417381276733565 0.3931794438595098 0.009335817603224106 164 159 157 2.42 53 0 54 0 57 0 63 0 64 0 65 0 
1580 -0.3652366711899901 0.25725126630116063 0.017788171630916727 163 160 159 0.33 53 0 57 0 59 0 
1581 -0.6943142910636924 0.1949016625917694 0.010861269092883541 106 112 120 0.35 53 0 54 0 57 0 58 0 59 0 
1582 0.21733478782314297 0.37066181606897813 0.013924824932469715 108 115 124 0.89 53 0 54 0 57 0 58 0 59 0 65 0 
1583 1.1087257921028173 0.546903230336393 0.005948670341722417 153 149 149 0.46 53 0 54 0 57 0 59 0 63 0 65 0 
1584 -0.2846649862764007 0.2622477228762133 0.007939888532814354 156 154 154 0.56 53 0 54 0 57 0 58 0 59 0 
1585 0.637842471459237 0.4436414028365397 0.0101488858113572 177 169 167 0.72 53 0 54 0 57 0 58 0 59 0 63 0 64 0 65 0 
1586 -0.711436280634324 0.180211133410684 0.012430731881274193 144 137 137 0.23 53 0 54 0 57 0 58 0 59 0 
1587 0.34293345438887957 0.37947159592639995 0.01031140680198206 155 146 142 0.54 53 0 54 0 57 0 58 0 59 0 65 0 
1588 0.3195538297067856 0.37464001436613 0.0076050191412260215 162 151 149 0.98 53 0 54 0 57 0 59 0 63 0 65 0 
1589 -0.9187198236849663 0.13365096652914227 0.021479804927604818 145 134 130 0.44 53 0 54 0 57 0 
1590 0.14064794806000414 0.32937390717518505 0.01322114321991874 135 126 128 0.72 53 0 63 0 64 0 
1591 0.012457204522832832 0.2960796126167136 0.011356349385355013 133 117 118 0.76 53 0 54 0 57 0 59 0 63 0 
1592 0.5230203472858297 0.39251224247975963 0.00952084631378991 113 124 136 0.53 53 0 54 0 57 0 58 0 59 0 63 0 65 0 
1593 -0.6773076925400113 0.16734446289271038 0.012963896263196384 151 138 131 0.42 53 0 54 0 57 0 59 0 
1594 -0.6095122383983527 0.1774987315080639 0.017154131525102922 148 143 140 0.92 53 0 54 0 57 0 58 0 59 0 
1595 0.4792600041705164 0.37890268897276963 0.0069099549510029945 132 131 133 0.46 53 0 63 0 65 0 
1596 1.113677844793426 0.5036008140378139 0.00641897600021224 152 144 138 0.55 53 0 54 0 57 0 58 0 59 0 63 0 64 0 65 0 
1597 -0.5511929796169583 0.1827099357696665 0.01621545918482803 170 168 166 0.43 53 0 54 0 57 0 58 0 59 0 
1598 -0.011364590700549848 0.27844701493504337 0.01381746283166918 163 155 154 0.57 53 0 54 0 57 0 59 0 
1599 -0.9621498140287706 0.11050965482468056 0.010126744026718315 144 130 129 1.27 53 0 54 0 57 0 58 0 
1600 -0.27296852933579807 0.22742458624736045 0.014835307126216613 180 179 180 0.87 53 0 54 0 57 0 64 0 
1601 -0.07011641063203994 0.2673755093839035 0.007250748740122326 129 123 131 0.35 53 0 54 0 57 0 
1602 -0.7420262656778733 0.1412786563575334 0.008602751727873281 157 156 157 0.62 53 0 54 0 57 0 
1603 0.686975434444137 0.3997998878582297 0.00815610701056646 153 154 157 0.44 53 0 57 0 58 0 63 0 64 0 65 0 
1604 -0.8333137319701315 0.12551249751344346 0.008235380911342238 133 114 110 0.31 53 0 54 0 57 0 
1605 0.048487273515767315 0.277089671556732 0.009639797528332883 101 98 104 0.25 53 0 54 0 57 0 58 0 59 0 63 0 64 0 
1606 0.16097662107667288 0.30011155346510804 0.005199335864503718 147 128 130 0.66 53 0 54 0 57 0 
1607 -0.5519687023217825 0.16772112175546933 0.008711070647626551 177 171 167 0.56 53 0 54 0 57 0 
1608 -0.3448039633793266 0.2000346653980149 0.013225672020210633 154 141 141 1.86 53 0 54 0 57 0 58 0 59 0 
1609 0.02918287621006055 0.2630211060188475 0.009468202062924647 154 148 152 0.47 53 0 54 0 57 0 58 0 59 0 
1610 -0.47118885783853676 0.17121016437592146 0.010886128874627143 138 138 142 0.45 53 0 54 0 57 0 58 0 
1611 -0.45196276100760924 0.17211373613071107 0.0030049747951055306 154 136 132 2.01 53 0 57 0 58 0 59 0 64 0 
1612 -0.3449752190033285 0.19407552897588648 -0.00923177513099005 147 143 152 2.32 53 0 54 0 57 0 58 0 59 0 
1613 0.37306057595590003 0.3142094074000266 0.008510567842485495 135 128 125 0.61 53 0 54 0 65 0 
1614 1.097169891443513 0.449846451559273 -0.001638104339826807 156 151 151 0.09 53 0 54 0 57 0 
1615 0.49449011739232773 0.3350150622038702 0.0052624568567216645 194 195 191 0.68 53 0 57 0 58 0 64 0 
1616 -0.8092965049452736 0.10714894064549008 0.015449451499564892 162 162 162 0.81 53 0 54 0 57 0 58 0 
1617 -0.6622871366440006 0.12640438618882882 0.01060147248203891 165 163 168 0.48 53 0 54 0 57 0 58 0 59 0 
1618 -0.1803126456302378 0.2052867746955443 0.002524482157527874 141 130 128 1.21 53 0 54 0 57 0 58 0 59 0 63 0 65 0 
1619 0.8601586799140135 0.38423980488456905 0.002328638872276745 84 74 82 0.42 53 0 57 0 63 0 
1620 -0.7025235267939689 0.11005639508540932 0.011635876052430882 126 119 121 0.31 53 0 54 0 57 0 59 0 
1621 -0.40129619368164754 0.15828224012583864 0.008193374196452385 158 155 156 2.22 53 0 57 0 58 0 
1622 -0.22571059789670622 0.1949626116718815 -0.011830766325362063 167 166 168 1.31 53 0 57 0 58 0 
1623 1.2899348638202677 0.45188383043638775 -0.00267838144331356 178 175 172 0.77 53 0 54 0 57 0 59 0 63 0 64 0 65 0 
1624 0.82870537020812 0.3681675721813627 0.0011059837584344034 136 126 125 0.54 53 0 54 0 57 0 58 0 59 0 
1625 -0.47343398069067494 0.14936537138258493 -0.009074494201863237 157 150 149 0.83 53 0 54 0 57 0 58 0 59 0 
1626 -0.3044307448261654 0.1777168866396655 -0.008658915606667206 170 170 172 2.39 53 0 54 0 57 0 58 0 59 0 
1627 0.48567032596251525 0.30441894239393147 0.0056059153986613985 153 127 122 0.36 53 0 54 0 57 0 58 0 59 0 63 0 64 0 
1628 -0.44888271382900746 0.14256689561446895 0.011806330534352982 162 161 162 0.51 53 0 54 0 57 0 58 0 59 0 
1629 -0.34813854330332616 0.15609360164511438 0.017073662286188673 147 138 143 0.42 53 0 57 0 58 0 
1630 0.020745299570494535 0.2196667211812518 0.0036295029864497064 101 92 93 0.63 53 0 54 0 57 0 58 0 59 0 
1631 1.0313305648075655 0.39425075752742794 -0.006476635095453043 123 116 123 1.03 53 0 54 0 57 0 58 0 59 0 63 0 64 0 65 0 
1632 -0.6161329617522899 0.11005709952075748 0.015531129468101534 178 176 176 0.21 53 0 57 0 59 0 
1633 1.0612415723549042 0.3919110719215751 0.0033782193984610576 148 144 145 0.66 53 0 54 0 57 0 63 0 64 0 65 0 
1634 -0.3080645216793238 0.15960475582288774 0.006707838232059338 158 157 159 0.91 53 0 54 0 57 0 59 0 
1635 0.10860338195173802 0.2225165919752477 0.011797063244904704 134 126 125 0.92 53 0 57 0 58 0 59 0 63 0 
1636 0.28188948135873293 0.2555721218770742 0.007435671069910388 138 132 132 0.69 53 0 54 0 57 0 58 0 59 0 63 0 64 0 
1637 -0.2761896000146259 0.15989758551495398 0.0037523528359315605 155 150 150 2.43 53 0 54 0 57 0 58 0 59 0 
1638 -0.7514712863101833 0.08150871717787433 0.00847314754887285 125 121 128 0.41 53 0 54 0 57 0 
1639 -0.5289663029119498 0.11384379593543753 0.012007963713796421 191 192 197 0.46 53 0 54 0 57 0 
1640 -0.3403867329087509 0.14360321592259734 0.009057405229624171 147 141 144 1.41 53 0 54 0 57 0 59 0 
1641 0.05100451701832498 0.20283837043898428 0.00950520520468534 139 124 124 0.63 53 0 54 0 57 0 58 0 59 0 
1642 0.7525013769211031 0.3206663055562127 0.003629297997620906 96 106 120 0.55 53 0 54 0 57 0 58 0 59 0 63 0 64 0 65 0 
1643 0.4725306280125373 0.27265365013251414 0.0022219858033405426 147 139 140 1.02 53 0 54 0 57 0 58 0 59 0 63 0 64 0 65 0 
1644 0.531452487866957 0.2802361971157438 0.00451092173652734 162 155 150 0.76 53 0 57 0 58 0 63 0 
1645 1.2607252810872622 0.39962480509130766 -0.001173015418565182 152 149 147 0.75 53 0 57 0 58 0 59 0 63 0 64 0 65 0 
1646 -0.10264841288363358 0.1712362648455102 0.013285056314233046 144 139 135 0.68 53 0 57 0 58 0 
1647 -0.20249447582787558 0.15184725099323654 -0.006572441160218601 158 148 148 1.42 53 0 54 0 57 0 59 0 
1648 -0.16633190037088907 0.14754629200734165 0.003717314856645615 152 139 127 0.87 53 0 54 0 57 0 58 0 59 0 
1649 -0.8192346244777589 0.05159565317883774 0.0048015012013444824 143 127 124 0.29 53 0 54 0 57 0 
1650 -0.6112613747776852 0.08242139228894685 0.0034135217658890493 159 155 155 1.13 53 0 54 0 57 0 59 0 
1651 0.22626065256358474 0.20713470111129945 0.004925508165432246 136 117 114 0.55 53 0 54 0 57 0 58 0 59 0 63 0 64 0 
1652 0.8868738544191543 0.310744229688871 0.001076350513876223 152 139 138 0.56 53 0 54 0 57 0 63 0 65 0 
1653 -0.43063173208987726 0.10517863552930129 -0.005066411634867318 140 140 140 0.88 53 0 54 0 57 0 58 0 59 0 63 0 64 0 
1654 -0.8737836658026958 0.03920562800539801 0.0028810628447824005 147 141 140 1.32 53 0 54 0 57 0 
1655 -0.28556794926180284 0.12101288671932603 0.0007950398604097408 143 140 144 1.83 53 0 57 0 59 0 
1656 -0.035822283012762635 0.1546416544363292 0.006251536175489125 165 165 163 0.56 53 0 57 0 58 0 
1657 0.03707798443195981 0.1596569847186749 0.0052101647336915136 100 92 99 0.17 53 0 63 0 64 0 
1658 -0.7677804412746225 0.03679401758722217 0.014026433195472032 103 97 100 0.33 53 0 54 0 57 0 
1659 -0.3441975092958742 0.09980477471407745 0.006738760445114789 176 170 166 0.22 53 0 57 0 59 0 
1660 6.431989382182923e-05 0.14928976500999452 0.007184089978196528 143 136 134 0.43 53 0 54 0 57 0 58 0 59 0 
1661 0.7472587665586485 0.2614357237708132 -0.000729178147123255 84 91 105 0.56 53 0 54 0 57 0 58 0 64 0 65 0 
1662 0.45592599535128364 0.2118742498404676 0.0019241080355820728 131 127 132 0.68 53 0 54 0 57 0 58 0 59 0 63 0 65 0 
1663 -0.2676381985414829 0.10145888489032318 0.004309935664296827 140 133 128 1.24 53 0 54 0 57 0 58 0 59 0 
1664 -0.054476379156765564 0.12758234168885402 0.013137769009515354 172 166 164 0.71 53 0 57 0 58 0 59 0 
1665 -0.17584081034622137 0.10455882074104578 0.0059570657666432325 165 164 162 0.8 53 0 54 0 57 0 58 0 59 0 
1666 0.938618549820214 0.26380981710376267 0.001888255060003674 170 173 174 0.57 53 0 54 0 57 0 58 0 59 0 63 0 65 0 
1667 -0.7315915498340742 0.020798554591116736 0.01208642889083289 143 143 147 0.84 53 0 54 0 57 0 58 0 
1668 0.39421276196587074 0.17843928016774796 0.0077754105550569275 117 106 108 2.69 53 0 54 0 57 0 58 0 59 0 63 0 64 0 65 0 
1669 0.5159536831061615 0.19613516154621286 0.0032959929026143975 111 110 115 1.22 53 0 54 0 57 0 58 0 59 0 63 0 64 0 65 0 
1670 0.11459240806338566 0.13709612585520808 0.003920937026348659 109 99 98 0.49 53 0 54 0 57 0 58 0 63 0 
1671 -0.9159156968952153 -0.0025976007836416293 -0.0017332821670164034 146 132 130 0.73 53 0 54 0 57 0 58 0 
1672 0.45378631877402753 0.1814618632319634 0.004303145885273807 139 130 128 0.9 53 0 54 0 57 0 58 0 59 0 63 0 64 0 
1673 -0.32373749380777944 0.07127102572625005 0.003587436026754931 148 142 144 0.79 53 0 54 0 57 0 58 0 59 0 
1674 0.3425114996820805 0.16096388169417059 0.008181046384223345 142 138 140 1.23 53 0 54 0 57 0 63 0 64 0 
1675 0.605372062629967 0.20110172675362098 0.0021036795881157477 142 125 123 1.02 53 0 54 0 57 0 58 0 59 0 63 0 64 0 65 0 
1676 -0.17642689939963158 0.08868969099276591 0.0066367270315697 150 134 123 1.22 53 0 57 0 58 0 59 0 64 0 
1677 0.7113340926551335 0.21687013423593454 -0.005216220220872536 119 113 115 2.23 53 0 54 0 57 0 59 0 63 0 65 0 
1678 0.31740038496229084 0.15186679742129366 0.004882347256336184 162 162 162 0.61 53 0 54 0 57 0 58 0 59 0 63 0 64 0 65 0 
1679 -0.5967194752058103 0.026440423391146273 0.00787636308304318 109 102 108 0.61 53 0 54 0 57 0 59 0 
1680 -0.37463172286929625 0.055381124974360374 0.009097789038220672 171 164 166 0.41 53 0 54 0 57 0 58 0 
1681 0.5560853621806021 0.18402528392611278 0.0011449926621991402 154 138 139 0.81 53 0 54 0 57 0 58 0 63 0 64 0 65 0 
1682 0.9275809228418557 0.2360326678293308 0.0006500996279792393 142 134 133 0.98 53 0 54 0 57 0 58 0 63 0 65 0 
1683 -0.1963204253338131 0.0758217265865983 0.0016906362781403672 136 123 121 1.7 53 0 54 0 57 0 58 0 59 0 63 0 
1684 0.6259890223893261 0.18151084123856204 0.007330554664067845 143 135 133 1.05 53 0 57 0 59 0 63 0 64 0 65 0 
1685 -0.23924447613742397 0.05817244740316574 0.007104986197159269 156 132 131 1.26 53 0 54 0 57 0 58 0 59 0 
1686 0.020282915956152336 0.0944858865052462 -0.01172360361339475 144 134 134 1.26 53 0 57 0 58 0 65 0 
1687 -0.5879183090643929 0.011678123008479868 0.004902564551819255 141 139 145 0.63 53 0 54 0 57 0 58 0 59 0 
1688 0.18224369348188196 0.11249743811948659 0.0021909069596370845 130 124 126 0.68 53 0 54 0 57 0 58 0 59 0 63 0 64 0 65 0 
1689 0.7581902539400065 0.18567845728985916 0.0032174176848152047 112 107 111 2.96 53 0 57 0 59 0 63 0 64 0 65 0 
1690 -0.5591413129062215 0.013060567439853954 0.006684490669474963 116 107 111 0.54 53 0 57 0 58 0 
1691 -0.16969058274111232 0.062054812871156606 0.00596510792357785 129 124 125 0.32 53 0 54 0 57 0 58 0 
1692 -0.2887828688185605 0.044735488316615 0.006283328536185184 169 156 142 0.5 53 0 54 0 57 0 58 0 59 0 
1693 0.3455643235429129 0.12669431361259337 0.0019991486269799186 99 95 96 0.52 53 0 54 0 57 0 58 0 64 0 65 0 
1694 0.45543493341507124 0.13860749200855343 0.0059182282162788535 120 123 124 0.43 53 0 54 0 57 0 
1695 0.6116583924945567 0.15970153277736082 0.00039685329720184903 127 124 124 1.6 53 0 57 0 58 0 59 0 63 0 65 0 
1696 -0.37450618981430384 0.030023967026350407 0.005136162422176849 121 107 110 0.55 53 0 54 0 57 0 
1697 -1.032249343418087 -0.05139585048301121 0.003540258771154603 146 144 142 0.43 53 0 54 0 57 0 
1698 0.2757038301924164 0.11148560618088027 0.0015941297760144746 140 138 135 0.6 53 0 54 0 57 0 58 0 59 0 63 0 64 0 65 0 
1699 -0.45744630936960834 0.015120973046719721 0.004893338831050809 128 124 132 0.91 53 0 54 0 57 0 58 0 59 0 63 0 
1700 -0.1900908937158301 0.047891134748519804 0.0034026832759121994 130 110 104 0.51 53 0 54 0 57 0 58 0 59 0 
1701 0.9822438331167815 0.19693903988080036 -0.005256416273691222 100 90 95 0.56 53 0 54 0 57 0 58 0 59 0 63 0 64 0 65 0 
1702 -0.16842672528134645 0.04746348045978682 0.0020769853866582366 160 144 133 0.5 53 0 54 0 57 0 59 0 
1703 -0.14154663350828633 0.046388274170334864 0.006507317444216509 131 121 122 0.73 53 0 54 0 57 0 58 0 59 0 
1704 -0.04376865739371616 0.06026950343951132 -0.0016723978812971385 125 120 126 0.33 53 0 54 0 57 0 
1705 0.3578674790320039 0.11298912918299048 -0.0008406087795926886 180 176 168 1.23 53 0 57 0 58 0 59 0 63 0 64 0 
1706 -0.3993190785916321 0.014285543881866869 0.0046903970671194894 116 108 104 0.4 53 0 54 0 57 0 59 0 
1707 0.8638015817740701 0.17413539404254236 -0.004318615125948666 126 112 111 0.48 53 0 57 0 59 0 64 0 65 0 
1708 -0.0065952172760016525 0.06070578392092435 -0.0029141318641732195 124 116 118 1.04 53 0 57 0 58 0 
1709 -0.3297474188021927 0.017833191352678746 0.004622731795365542 130 113 103 0.99 53 0 57 0 59 0 
1710 0.8995995998850257 0.17099829518681658 -0.0012113433266354168 91 92 100 0.46 53 0 54 0 57 0 58 0 59 0 63 0 64 0 
1711 -0.28326991173208926 0.020442945862346906 -0.003960153057375404 134 115 103 0.37 53 0 57 0 59 0 
1712 0.09299303062074171 0.06464643356786598 0.00037855881571635663 131 123 128 1.31 53 0 54 0 57 0 58 0 
1713 -0.3993590717509725 0.003140666482803367 0.0038508035991233758 149 144 138 0.58 53 0 54 0 57 0 59 0 
1714 0.5237885494803155 0.1121855857064028 0.003757456965835182 162 157 161 0.68 53 0 63 0 64 0 
1715 0.9960541208008005 0.17075324531655062 -0.0032010072722339356 144 148 148 0.54 53 0 54 0 57 0 64 0 
1716 -0.8163359458713615 -0.04843780012097121 0.007158891191739292 129 120 123 0.9 53 0 54 0 57 0 
1717 0.0048083884747947 0.052571541783286435 -0.010501774974199796 133 128 130 1.7 53 0 54 0 57 0 59 0 
1718 0.45111643273285706 0.09801990570077052 -0.0004532800802450332 139 130 134 1.75 53 0 54 0 57 0 58 0 59 0 64 0 
1719 0.6825983626525798 0.12645840083027532 -0.002713463625925394 148 136 134 0.42 53 0 57 0 58 0 65 0 
1720 -0.3283391654805742 0.002985623981606733 0.0020985189253419634 150 138 130 0.62 53 0 57 0 59 0 
1721 -0.011689694971508902 0.03167875137770898 0.004925485758342507 116 112 123 0.56 53 0 54 0 57 0 59 0 
1722 -0.1219072294239208 0.018475408578302488 0.0035669498434198754 140 119 112 0.39 53 0 57 0 58 0 
1723 1.352436051465883 0.19311619413365505 -0.007603863519551668 102 91 97 0.32 53 0 54 0 57 0 64 0 
1724 -0.9709115943962143 -0.0795431573612369 0.009614562302800334 153 149 151 2.04 53 0 54 0 57 0 
1725 -0.36283725944183415 -0.014528061246685764 0.007113578818841226 155 149 142 0.53 53 0 54 0 57 0 58 0 59 0 
1726 -0.1891502574679228 0.006623650545909687 0.0002856849250838511 159 141 129 0.37 53 0 54 0 57 0 58 0 59 0 64 0 
1727 0.29439650270799456 0.05858361282732938 0.007781053015900596 199 209 217 0.69 53 0 63 0 64 0 
1728 -0.9315635006188547 -0.07704877637560831 0.005249827709953969 129 109 107 0.4 53 0 54 0 57 0 
1729 -0.0258395186198197 0.018698069777386417 0.006682650598469397 139 128 128 0.31 53 0 54 0 57 0 
1730 0.020112593675866042 0.026422078636322566 -0.008116778322884821 110 104 109 1.61 53 0 54 0 57 0 58 0 59 0 
1731 0.08167092826976496 0.031140577004706627 0.003922576803749855 90 75 77 1.16 53 0 54 0 57 0 65 0 
1732 0.18769620173192347 0.04410941150137737 0.003360635360885489 172 176 180 0.4 53 0 54 0 57 0 58 0 59 0 63 0 65 0 
1733 0.3363398821676282 0.05995399486721842 0.0022236995244035995 178 189 199 0.43 53 0 54 0 57 0 59 0 64 0 
1734 -0.5919050585758892 -0.046559603898618296 0.012479685541130214 146 143 146 2.87 53 0 54 0 57 0 58 0 63 0 
1735 -0.004751103427561132 0.0203712813094577 -0.0038209435816645154 110 94 97 0.32 53 0 57 0 59 0 
1736 -0.5509705889808656 -0.04328396238765675 0.0049361282670832285 105 95 101 0.45 53 0 54 0 57 0 58 0 59 0 
1737 -0.40107889842425265 -0.02685098526115165 0.0041220661134429015 115 103 101 0.79 53 0 54 0 57 0 59 0 
1738 1.0982578750678944 0.14112329492037917 -0.002355107860076311 162 162 161 2.95 53 0 63 0 64 0 
1739 -0.29584587158780445 -0.014722876267428575 -0.004885944683580279 107 96 95 0.39 53 0 57 0 63 0 
1740 -1.0182978546960773 -0.08967724965434293 -0.009102173485773024 165 160 157 0.85 53 0 54 0 57 0 58 0 
1741 -0.02617158317955609 0.007874569097069406 0.002333626308196557 135 111 112 0.56 53 0 54 0 57 0 58 0 59 0 
1742 0.09703030028940152 0.020635407709840903 0.005343249839488973 137 127 130 0.2 53 0 57 0 58 0 63 0 
1743 1.175220285498202 0.13991866155005855 0.0031493814417669075 108 101 102 1.39 53 0 57 0 63 0 
1744 0.35648908834564186 0.04600614738022596 0.005396574257525266 169 171 174 0.97 53 0 54 0 57 0 58 0 63 0 64 0 
1745 -0.29599043181490436 -0.028562272816908485 0.004341929365717645 152 144 134 0.56 53 0 54 0 57 0 59 0 
1746 0.4584905203370214 0.05535197907348344 -0.009240386197633121 137 126 127 0.56 53 0 63 0 65 0 
1747 -0.3939770403385688 -0.04059782604868101 0.0010262458030736443 100 102 109 0.46 53 0 54 0 57 0 59 0 
1748 -0.08259849202097092 -0.008418004621264186 -0.0042629026171348006 162 158 149 1.08 53 0 54 0 57 0 58 0 59 0 63 0 
1749 0.7155511898757847 0.07324936345588018 -0.004921528118813301 134 129 128 1.76 53 0 63 0 64 0 65 0 
1750 -0.3507643152280534 -0.042197542056837734 0.0008200578052177665 141 137 135 0.8 53 0 54 0 57 0 58 0 59 0 
1751 -0.5074743774800408 -0.05925581239731115 0.0012324987032208412 128 118 118 0.83 53 0 54 0 57 0 58 0 59 0 
1752 -0.33761509232001635 -0.042881958139039555 0.0014392848985167461 144 143 139 0.61 53 0 54 0 57 0 58 0 59 0 
1753 0.10450573040123035 0.005866326554754386 -0.0034139993176331984 127 120 126 1.15 53 0 54 0 57 0 58 0 59 0 64 0 65 0 
1754 -0.3167552466769221 -0.040698300007342425 -0.005916632562378954 144 139 131 1.83 53 0 54 0 57 0 58 0 59 0 
1755 1.248017081197614 0.12080812799845708 -0.00638195436324418 95 96 103 0.58 53 0 57 0 58 0 59 0 63 0 65 0 
1756 -0.45699431599233187 -0.05595411168162495 -0.008685441319873366 120 108 110 1.3 53 0 54 0 57 0 59 0 
1757 -0.06594998119738138 -0.021180196590147193 -0.00975577992322152 126 118 115 0.8 53 0 57 0 59 0 
1758 -0.5592661282955822 -0.07559262556345486 0.004055242043743634 98 95 100 0.38 53 0 54 0 57 0 59 0 
1759 -0.04071325911007073 -0.023333309303727068 -0.001725474607107147 138 134 130 0.38 53 0 57 0 58 0 59 0 
