# 3D point list with one line of data per point:
#   POINT3D_ID, X, Y, Z, R, G, B, ERROR, TRACK[] as (IMAGE_ID, POINT2D_IDX)
# Number of points: 450, mean track length: 4.53
635 0.09099086643060994 -0.17680553824127632 0.004636749047167488 140 137 136 0.38 59 0 60 0 61 0 62 0 63 0 64 0 65 0 
636 0.1388256047341796 -0.17845509866875953 -0.0020295945656179093 147 134 124 0.67 59 0 60 0 61 0 62 0 64 0 
637 0.42262305993206706 -0.22218734104555105 0.011987879100946008 125 119 115 1.54 59 0 60 0 61 0 62 0 65 0 
638 1.0646500870797753 -0.3210130899576854 0.018567180414296836 81 77 84 0.59 59 0 61 0 64 0 
639 0.4422078911330527 -0.21908074224373497 -0.0003558354394084251 132 121 122 0.55 59 0 60 0 62 0 64 0 
640 -0.6322913192603306 -0.08572430118749663 0.005785079043959307 161 155 149 1.09 59 0 60 0 61 0 65 0 
641 0.18648748564486195 -0.18061995492127847 0.001375579151107198 111 106 112 0.59 59 0 60 0 61 0 62 0 63 0 64 0 65 0 
642 -0.7139578430763056 -0.07128320807026356 0.021099148301076287 130 116 114 1.6 59 0 60 0 62 0 64 0 65 0 
643 0.5640974901623421 -0.2296925141955849 0.0030234487635272256 143 139 138 0.26 59 0 60 0 61 0 65 0 
644 0.3082059014476888 -0.19300486141108364 0.0020602722446090294 95 93 94 1.48 59 0 60 0 61 0 63 0 64 0 65 0 
645 0.29501277169333595 -0.19250626500690493 0.004752051878972763 114 119 119 0.62 59 0 60 0 62 0 65 0 
646 -0.25815040901268616 -0.10942940937648837 -0.017611375772781823 122 114 113 1.12 59 0 60 0 62 0 
647 -1.1505321532472619 -0.04132221224469157 0.08284187511980834 115 98 99 0.55 59 0 60 0 62 0 
648 0.6825321629734487 -0.24484870189521935 0.0070451480875455275 141 138 137 0.48 59 0 60 0 61 0 62 0 63 0 64 0 65 0 
649 0.5865611381769877 -0.23071489318686467 0.0011473069324607899 145 138 135 0.27 59 0 61 0 63 0 64 0 65 0 
650 -0.4501073790282622 -0.08758257659090518 -0.007673654038240718 110 98 100 1.66 59 0 60 0 61 0 63 0 64 0 
651 0.6370838171098947 -0.23733498498105954 0.001996720287736453 136 130 128 1.38 59 0 60 0 61 0 62 0 64 0 65 0 
652 0.34758191354387824 -0.19939038446259216 0.018062687150511625 122 122 124 0.57 59 0 60 0 61 0 62 0 63 0 
653 1.0643997020922111 -0.29504639222942686 0.007147558616522165 132 135 137 0.67 59 0 61 0 63 0 64 0 65 0 
654 0.4075719131682711 -0.19989403760148405 0.00460318256078085 150 149 150 0.58 59 0 60 0 61 0 62 0 63 0 65 0 
655 0.501346068549831 -0.2438167457554139 0.009604709257611255 157 149 149 0.39 59 0 60 0 62 0 64 0 65 0 
656 -0.8196158846010358 -0.03631291284750027 -0.012460844540928218 75 72 78 0.33 59 0 60 0 64 0 
657 0.7830892349946879 -0.24789243076429224 0.003967744253545291 179 181 183 0.35 59 0 60 0 62 0 64 0 65 0 
658 -0.030175473149974152 -0.13307482958622707 -0.008030926886114509 145 135 130 1.17 59 0 61 0 63 0 
659 0.7437858270918478 -0.7264919208752961 -0.00056334678579395 147 140 140 0.51 59 0 60 0 61 0 63 0 
660 -0.48032365231307195 -0.08601227980529513 0.0129719913163584 96 79 82 0.18 59 0 60 0 61 0 62 0 
661 0.8300595474309269 -0.2530728665244486 0.008429634213221737 169 172 172 1.12 59 0 60 0 65 0 
662 -1.0365263703280414 -0.012960499122247948 0.009055302854622083 91 109 123 0.25 59 0 60 0 62 0 
663 0.8791687995413775 -0.2567525323626183 0.007383616131130255 173 166 155 2.09 59 0 61 0 63 0 65 0 
664 -0.30149692558363983 -0.09866779401353964 0.0032973670681872846 106 89 86 0.76 59 0 60 0 61 0 62 0 64 0 
665 -0.6332325876741369 -0.05512859522740221 -0.0016302874271336698 104 105 108 1.04 59 0 60 0 61 0 63 0 65 0 
666 -0.055498144553354334 -0.12463315870480052 0.014757609057873822 136 117 117 0.76 59 0 61 0 63 0 64 0 
667 -0.07008014223702119 -0.11606369059467248 0.0018970287734605407 103 98 103 1.09 59 0 60 0 61 0 62 0 65 0 
668 0.6749162979510184 -0.2217823848780237 0.005593145964916113 92 88 98 0.67 59 0 60 0 62 0 64 0 65 0 
669 0.6318396888190343 -0.2179612819697413 0.007286141851294836 68 68 76 0.71 59 0 60 0 61 0 63 0 64 0 65 0 
670 -0.5637193365253976 -0.10794123947875933 0.009069610806452522 142 140 140 0.76 59 0 61 0 63 0 
671 -0.4263331941462668 -0.4322466340158405 0.012590310026987073 129 125 125 0.71 59 0 60 0 61 0 62 0 64 0 65 0 
672 -1.0556875048426315 -0.03986713806234221 -0.03814240645780931 148 143 141 1.35 59 0 60 0 62 0 
673 0.7921068121903454 -0.29178410394323706 0.0036333174372795707 91 81 90 0.73 59 0 60 0 61 0 62 0 63 0 64 0 
674 0.6183068696705036 -0.2657175687014207 0.004616164006038037 147 135 132 0.51 59 0 60 0 62 0 64 0 65 0 
675 0.7345427937698774 -0.22753695747720637 0.008019956562919317 135 143 144 0.54 59 0 60 0 61 0 62 0 64 0 65 0 
676 0.6026882986733701 -0.20950298731806838 0.017070691462604648 141 137 138 1.38 59 0 60 0 61 0 63 0 64 0 
677 1.0666552784149146 -0.27364693099797166 0.009422478482276953 105 110 118 0.59 59 0 61 0 63 0 
678 0.498665663507202 -0.177965856325208 -0.005802545413077231 126 122 120 1.27 59 0 60 0 61 0 62 0 63 0 64 0 65 0 
679 0.22992852308542333 -0.14445361395887257 0.004112811209172396 134 127 123 0.74 59 0 60 0 62 0 64 0 65 0 
680 0.7728010001639523 -0.2168763265886292 0.006467932197101067 145 142 144 0.55 59 0 60 0 62 0 65 0 
681 0.3606585010220551 -0.15714236292896877 0.004866170311998763 137 134 137 0.55 59 0 61 0 64 0 65 0 
682 0.012913606307163428 -0.1099627935132842 0.0014647441263215821 106 97 99 0.46 59 0 60 0 62 0 65 0 
683 0.21761381614652997 -0.14507941376505984 0.0185088004855809 148 144 139 2.52 59 0 60 0 61 0 62 0 63 0 
684 -0.19584793546593915 -0.1510185562418056 -1.933032585332839e-05 108 103 105 0.59 59 0 60 0 61 0 63 0 64 0 65 0 
685 -0.623797068343374 -0.08914579958564905 -0.04163896875665718 143 134 128 1.38 59 0 61 0 63 0 
686 0.921552339505745 -0.31384481737616776 0.010423938355859974 107 98 98 0.42 59 0 61 0 63 0 64 0 
687 0.5933337749718957 -0.26525223179202195 0.007640602651678652 167 163 163 1.15 59 0 60 0 61 0 62 0 63 0 64 0 65 0 
688 0.06769022061648844 -0.19061925825383919 0.0026390341182072063 130 120 122 0.32 59 0 60 0 61 0 63 0 65 0 
689 0.023785458136460158 -0.18705754994186619 0.005633317522605763 146 134 135 0.74 59 0 60 0 62 0 64 0 65 0 
690 -0.2518077002113075 -0.15395866420405235 0.01095383817327611 135 131 130 0.53 59 0 61 0 63 0 
691 -0.6938677112070384 -0.09691413492436085 7.650401387948591e-06 150 142 141 0.14 59 0 60 0 62 0 
692 0.10320392779842869 -0.11861975115762469 0.002040451912063146 146 139 136 0.33 59 0 61 0 65 0 
693 -0.2989048038724801 -0.06765706117873649 0.003944725267055471 152 148 146 1.15 59 0 60 0 61 0 62 0 63 0 64 0 65 0 
694 -0.630560013526692 -0.03364337011575125 0.011001856284000855 107 97 85 0.43 59 0 60 0 61 0 63 0 
695 1.0020732874240919 -0.23890720083287353 0.0056611785636002665 113 108 108 1.85 59 0 61 0 63 0 64 0 
696 0.6668531850132802 -0.1952134095471295 0.007610207429243232 156 154 155 0.65 59 0 60 0 62 0 64 0 
697 0.9300424300623911 -0.6395521139574502 0.0057782877510099695 146 149 144 0.43 59 0 61 0 63 0 64 0 
698 0.9028653833982141 -0.6325404052755087 0.004622979331517563 94 89 86 0.38 59 0 60 0 64 0 
699 -0.22768217864220475 -0.07661098501109354 0.008349830106006761 148 147 151 0.47 59 0 60 0 61 0 62 0 63 0 65 0 
700 -0.11968701966815198 -0.092027024955596 0.026841934873389484 130 122 124 1.11 59 0 60 0 61 0 62 0 
701 0.4599005489753474 -0.15917248272487805 0.003913199798057487 130 123 125 0.85 59 0 60 0 61 0 62 0 63 0 64 0 65 0 
702 0.13808312796575417 -0.11647267736969291 -0.0032205350976957092 114 107 105 0.66 59 0 60 0 61 0 62 0 64 0 65 0 
703 -0.26216515503014926 -0.06894976368210226 0.0024943837610718056 109 105 106 0.84 59 0 60 0 62 0 
704 0.7876536335582573 -0.2009484075096164 0.00036733192955762384 103 98 102 0.49 59 0 61 0 64 0 65 0 
705 0.296144236002986 -0.22465554646605324 0.0028375934557174354 140 131 131 0.76 59 0 60 0 62 0 65 0 
706 0.2759870664830555 -0.22097797241834194 -0.00014968745832599772 119 112 111 1.12 59 0 60 0 61 0 62 0 64 0 
707 0.6449831029810276 -0.2795211528453271 0.006915394556988419 110 114 119 0.65 59 0 60 0 61 0 62 0 63 0 64 0 65 0 
708 0.1652167381241736 -0.20637988632265902 -0.00538899268481452 122 108 107 0.4 59 0 60 0 62 0 
709 -0.026479280158214435 -0.1893014819286808 0.017582282656441572 136 133 132 1.01 59 0 61 0 64 0 
710 0.655142070309124 -0.1771199480650142 0.0036361872034293974 126 123 120 0.89 59 0 60 0 61 0 62 0 64 0 65 0 
711 0.28749435658737554 -0.128782071256616 0.0038901759405636227 136 126 125 0.55 59 0 61 0 64 0 
712 0.06639252158447406 -0.09689035809767399 0.0007119971748219545 113 96 95 0.42 59 0 60 0 61 0 62 0 64 0 65 0 
713 -0.019704875077212525 -0.08923845110229034 0.004319878272420308 138 119 109 0.57 59 0 60 0 61 0 63 0 64 0 65 0 
714 -0.7015918323176924 -0.01680228630558389 0.0282886671526259 149 145 142 1.26 59 0 60 0 64 0 65 0 
715 0.6968837345942169 -0.17964836407714235 0.0048035046898953215 124 118 118 1.59 59 0 60 0 61 0 64 0 65 0 
716 -1.2156090808467028 0.04940854041243037 0.014112174512258102 89 80 87 0.3 59 0 60 0 62 0 
717 0.41487427723597614 -0.14186765701963078 0.005655678322958657 133 126 128 0.56 59 0 60 0 62 0 64 0 
718 0.8067543314838521 -0.6613433277630288 0.01289104812240005 161 152 148 0.46 59 0 60 0 61 0 63 0 64 0 
719 1.0284609530502438 -0.22067442096567047 0.005774748840188471 112 107 107 0.25 59 0 61 0 63 0 64 0 
720 0.24878835234137564 -0.12043942537839503 0.029223617455350848 109 104 105 0.53 59 0 61 0 63 0 
721 -0.4558188491046592 -0.13419534916070364 0.010407212518749986 133 122 118 0.67 59 0 60 0 61 0 62 0 63 0 64 0 65 0 
722 -0.8853273477048221 -0.08121561617822493 0.0021339549245578127 123 113 111 0.31 59 0 60 0 62 0 
723 0.1186311316371289 -0.20370924954381542 -0.00045590439540421634 91 89 95 0.41 59 0 60 0 62 0 64 0 
724 -0.09416248572857921 -0.1777346884940153 0.004946221076468582 139 134 135 1.07 59 0 60 0 61 0 62 0 
725 -0.47959438053080694 -0.12762894075539977 -0.010681356771412798 89 74 72 0.32 59 0 60 0 61 0 
726 -0.9786563693524434 0.03414002410973982 0.010006768171259894 74 78 91 0.94 59 0 60 0 62 0 65 0 
727 0.6118417590638581 -0.15754756910061019 0.008997506464309524 122 119 117 2.07 59 0 60 0 61 0 63 0 64 0 
728 0.31461366933650403 -0.11445831257870742 -0.004827421718702984 139 132 129 1.1 59 0 60 0 62 0 64 0 
729 0.7166286113547071 -0.16652541471885407 0.004866525921116693 112 111 111 0.51 59 0 60 0 62 0 64 0 65 0 
730 0.7614199802983499 -0.16837371621294495 -0.0003168755417930491 167 171 174 0.23 59 0 60 0 62 0 65 0 
731 0.18632565718490857 -0.09567276156942561 0.013871196985646872 91 87 91 1.51 59 0 60 0 61 0 
732 -0.17438501182756072 -0.04777378059052528 0.0031303134840274804 82 74 77 0.49 59 0 60 0 61 0 62 0 63 0 
733 0.09179105519433095 -0.06980548395260822 -0.010193654984318234 138 135 134 0.62 59 0 60 0 61 0 62 0 63 0 65 0 
734 0.9112815568031953 -0.18620622869828307 0.009150594367097975 125 125 119 0.54 59 0 61 0 63 0 64 0 65 0 
735 0.11133599775165381 -0.06223361078749157 -0.026405722420858924 114 111 113 0.5 59 0 60 0 62 0 
736 -0.9550635903039072 0.0476069493148924 0.014481655230432988 126 126 127 0.34 59 0 60 0 64 0 
737 0.33937518254255483 -0.10414794073282019 0.0033321228622378296 119 104 101 0.41 59 0 61 0 64 0 65 0 
738 -0.0028087179682066976 -0.1946545704678272 0.001079635997772277 114 104 104 1.42 59 0 60 0 61 0 62 0 64 0 65 0 
739 0.47262276388098634 -0.1124775889596269 0.00010836545360559668 87 90 97 0.85 59 0 60 0 61 0 62 0 65 0 
740 0.4399311414413649 -0.11414405369916392 0.008802522540954927 111 112 119 0.88 59 0 60 0 64 0 65 0 
741 0.007285866166147792 -0.052142573847230644 0.005632409158101703 141 138 136 0.67 59 0 61 0 63 0 
742 -0.4692397631686041 0.005996661656973767 -0.00480438351464163 102 106 109 1.32 59 0 60 0 61 0 
743 1.0882670310319253 -0.19987223997674797 0.014643943937703519 95 104 111 1.08 59 0 61 0 63 0 64 0 65 0 
744 0.2914072080546706 -0.24374753764121848 0.014304280381153278 163 155 148 0.88 59 0 60 0 62 0 64 0 
745 0.04535664330406908 -0.2029415606896593 -0.0017963543024779316 148 144 142 0.63 59 0 60 0 61 0 62 0 63 0 64 0 65 0 
746 -0.14676099572818924 -0.18201074662897343 0.0036538551579456957 145 156 161 0.33 59 0 60 0 61 0 63 0 64 0 
747 -0.27221796249948105 -0.1661692665796718 0.0032272944402254033 155 148 146 0.96 59 0 61 0 64 0 
748 0.6597594645262332 -0.13244193367065693 0.0023921181045047923 149 150 150 0.35 59 0 60 0 62 0 64 0 65 0 
749 0.19624219842064128 -0.07269060905030544 0.00487548435774765 82 75 79 0.75 59 0 60 0 61 0 63 0 65 0 
750 0.17223312789211787 -0.068929837133337 0.004983631909442954 82 73 78 1.17 59 0 60 0 61 0 65 0 
751 -0.6977035684503942 0.03172456979802152 0.0022421513420813888 132 128 125 0.14 59 0 60 0 62 0 
752 -0.03536487168948721 -0.04359301284768369 0.005192502201616822 90 80 80 0.41 59 0 60 0 61 0 62 0 
753 0.12338675658840126 -0.05291493049946716 -0.006341927216007237 129 120 118 2.49 59 0 60 0 61 0 63 0 64 0 65 0 
754 -0.33950798560947004 0.0004299045688112013 0.004900510819842108 124 121 121 0.69 59 0 60 0 61 0 62 0 63 0 64 0 65 0 
755 0.8283012650863082 -0.14989973653752886 0.005664934555643875 160 161 159 0.74 59 0 61 0 63 0 
756 0.6785456992359435 -0.1271350754609436 -0.00707493731137232 82 67 75 0.71 59 0 60 0 62 0 
757 0.2720044660864054 -0.07584795672790923 0.0047097727420228885 98 91 89 1.06 59 0 60 0 61 0 62 0 64 0 65 0 
758 0.8026882534075592 -0.1488082999396202 0.014384051711750834 139 136 133 1.61 59 0 60 0 62 0 64 0 65 0 
759 0.24788803697823947 -0.06942011168394535 0.003350347223411543 139 143 139 0.19 59 0 61 0 65 0 
760 0.8888685155347389 -0.15059298355130368 0.004684169524080906 138 131 122 1.04 59 0 61 0 63 0 64 0 65 0 
761 0.8613650395355197 -0.14802621795258875 0.0035557569878013062 140 134 130 0.43 59 0 61 0 64 0 65 0 
762 -0.24509949874059855 -0.0036885206233429058 0.0010925440843028156 115 113 110 0.47 59 0 60 0 61 0 62 0 64 0 65 0 
763 -0.2818420492852276 0.0011266364375217552 -0.00790571550610264 129 129 128 0.6 59 0 60 0 61 0 62 0 63 0 64 0 65 0 
764 -0.6898237512933476 0.047452418105954686 -0.004630633869193934 135 123 115 1.39 59 0 60 0 62 0 64 0 
765 -0.07346589402485681 -0.19595452993681628 0.010610707150940035 126 122 120 0.5 59 0 60 0 61 0 64 0 
766 -0.13070037387879674 -0.19050672251917533 0.007977834543409168 142 136 133 1.97 59 0 61 0 64 0 65 0 
767 0.5523310564079267 -0.5690188264153014 0.0087275815202017 124 116 114 0.8 59 0 60 0 61 0 62 0 64 0 
768 0.37927929865916266 -0.5400777010827703 0.0045758886900000295 119 122 130 0.88 59 0 61 0 63 0 64 0 65 0 
769 -0.025001137818665642 -0.4762816308428396 0.007093638988451723 126 119 119 1.82 59 0 60 0 61 0 62 0 63 0 65 0 
770 -0.3210130742314595 -0.16170038920735097 -0.0009079712430841713 152 151 156 0.82 59 0 61 0 63 0 
771 -0.35341181460741444 -0.1610610272981453 0.005238562539103597 100 107 116 0.54 59 0 60 0 61 0 62 0 63 0 64 0 65 0 
772 -0.529914986782523 -0.13977507552836033 0.007497592434660527 134 129 131 0.36 59 0 61 0 63 0 
773 -0.7974969890078454 0.06768208627990224 -0.01778414472547163 120 103 103 1.69 59 0 60 0 62 0 64 0 
774 0.7617657281784711 -0.12562638805740167 -0.0053023906094371576 123 111 109 0.67 59 0 60 0 64 0 
775 0.7150993896007185 -0.12314921231165243 0.003110366440973289 142 141 138 3.49 59 0 61 0 63 0 64 0 65 0 
776 0.3791713895628921 -0.08038381320255195 0.007872158062582235 110 99 101 0.7 59 0 60 0 61 0 62 0 63 0 64 0 65 0 
777 -0.16578417719867533 -0.012921936311574345 0.010354128438839982 155 152 144 1.21 59 0 60 0 61 0 62 0 63 0 64 0 
778 0.8336813847298881 -0.13351241160489802 0.006260263220805307 117 115 113 2.81 59 0 60 0 61 0 63 0 65 0 
779 0.0012966713480145886 -0.5967221649390803 0.014681515942017276 139 128 126 0.64 59 0 60 0 61 0 63 0 
780 0.5745106114293594 -0.09479847134373398 -0.0036954194612375257 121 120 122 1.27 59 0 60 0 61 0 62 0 64 0 
781 0.5463825186067905 -0.09348407204249531 0.002758944282380771 121 118 124 0.32 59 0 60 0 62 0 65 0 
782 -0.09452236257874347 -0.013178608972237549 -0.0003993530784409671 163 156 153 0.61 59 0 60 0 61 0 63 0 64 0 65 0 
783 -0.13707302394779108 -0.009740640098507058 0.0013441374684890484 184 185 181 0.51 59 0 60 0 62 0 64 0 65 0 
784 -0.5444813212527533 -0.14043450364152543 0.011944407347334707 113 96 97 0.78 59 0 60 0 61 0 62 0 64 0 65 0 
785 0.8569201306103464 -0.33075050621717816 0.004312343537178798 145 143 142 0.46 59 0 60 0 62 0 64 0 65 0 
786 0.6363307980435249 -0.2954977907262647 -0.0034586372964671153 151 137 135 0.79 59 0 61 0 63 0 64 0 65 0 
787 0.05215191661299001 -0.025258019496394057 -0.00037368165821871635 120 114 116 0.49 59 0 61 0 63 0 
788 0.27756471569799634 -0.05718809765830957 -0.0010546638510360307 154 152 145 1.76 59 0 60 0 61 0 63 0 64 0 65 0 
789 -0.7154978038030655 0.062426738322806874 0.012034256624142925 120 103 102 1.01 59 0 60 0 62 0 64 0 
790 0.31296894563725486 -0.25977935874445446 0.009981650643656081 126 117 118 0.96 59 0 61 0 63 0 64 0 
791 0.5882640094524596 -0.08784146558677774 0.005170308638737353 146 151 149 0.42 59 0 60 0 62 0 65 0 
792 -0.04731735629902045 0.0030034606144105913 -0.026016838319043112 110 101 101 0.75 59 0 60 0 62 0 
793 -0.07067923099699447 -0.006443808601236833 0.01676287047987457 119 109 111 1.13 59 0 61 0 64 0 
794 -0.4464585697441858 0.043218381614586465 -0.007915622024895042 109 97 97 1.07 59 0 60 0 61 0 
795 -0.4912006876770482 0.05589305669493194 -0.039089576605721765 145 139 137 0.93 59 0 60 0 62 0 
796 -0.65122787292564 -0.13475307025173866 0.008410371002216532 125 124 128 0.67 59 0 60 0 61 0 62 0 64 0 65 0 
797 0.9904775908749377 -0.357402468422622 -0.0016060900627099528 141 137 135 1.18 59 0 61 0 64 0 65 0 
798 0.29185380426139274 -0.26004819982348604 0.014390174944982181 120 110 107 0.89 59 0 60 0 61 0 62 0 64 0 65 0 
799 0.2449388896263449 -0.25021769138129357 0.001707627953368318 129 123 122 0.77 59 0 60 0 61 0 62 0 63 0 64 0 
800 0.3748393070118452 -0.0514352430306233 -0.003124976698960502 134 127 125 0.52 59 0 61 0 63 0 65 0 
801 0.3076833706375124 -0.047835572446654706 0.0053295769197181375 139 129 119 1.83 59 0 60 0 61 0 62 0 63 0 65 0 
802 -0.022767446344358233 -0.007851564255425436 -0.0008876605251710856 101 92 94 0.46 59 0 60 0 61 0 
803 0.3307469170718784 -0.04570323674560983 0.0032521702384455953 115 116 117 0.85 59 0 60 0 61 0 63 0 64 0 
804 0.0649176269928432 -0.01356050376501261 0.004119728383707999 128 125 125 1.22 59 0 60 0 61 0 62 0 63 0 64 0 65 0 
805 0.8882563064143885 -0.3482009725911197 0.006527532629783783 119 103 105 0.51 59 0 61 0 63 0 65 0 
806 -0.4241465902226833 -0.17068868576750995 0.015111751731798906 133 124 125 0.66 59 0 60 0 61 0 62 0 63 0 64 0 
807 -0.4516105198226451 -0.16443204952860435 0.007959110009907455 142 135 134 0.64 59 0 60 0 61 0 62 0 63 0 64 0 65 0 
808 -0.603445727305552 -0.1444242341150881 0.005337963741942842 102 96 104 0.53 59 0 60 0 61 0 62 0 63 0 64 0 65 0 
809 -0.3050971930040224 0.0468420793305484 -0.042486255505460147 118 126 135 0.34 59 0 60 0 61 0 
810 0.40376300185958214 -0.05546843538236401 0.0056868797203479815 142 130 130 0.76 59 0 61 0 63 0 64 0 65 0 
811 0.17207459131609681 -0.01888699690605511 0.0020497033614816917 131 120 120 0.84 59 0 60 0 62 0 64 0 65 0 
812 -0.9571885983580625 0.11182906380139845 -0.007819322668777495 129 122 123 0.63 59 0 60 0 62 0 64 0 
813 1.0597055782731288 -0.13853451345631596 0.007001294454902718 124 118 96 0.59 59 0 61 0 64 0 65 0 
814 1.0369491893326341 -0.13256112646963647 -0.0016712107275544952 129 126 113 1.09 59 0 61 0 64 0 65 0 
815 -0.2643877934053228 0.03803187062084834 -0.0036542662843201956 126 123 125 0.35 59 0 60 0 61 0 65 0 
816 -0.3575548727553409 0.04857590286188118 -0.00149166713286486 144 137 131 0.44 59 0 60 0 61 0 62 0 63 0 64 0 65 0 
817 0.793391967467225 -0.09599598893937167 -0.0008653892741616875 108 96 97 1.15 59 0 60 0 61 0 62 0 63 0 64 0 65 0 
818 0.6231600857605537 -0.07601058385482118 0.0069630371197426655 154 147 146 1.76 59 0 60 0 62 0 64 0 65 0 
819 0.18968897907089177 -0.019513859949256473 0.0022853746393558527 104 99 102 0.76 59 0 60 0 64 0 
820 -0.7058378094379169 0.08972007061444154 -0.0004610907101236794 108 92 85 0.54 59 0 60 0 62 0 
821 0.8650365415109829 -0.10316741308293287 -0.000601336894587412 121 117 123 1.76 59 0 61 0 63 0 64 0 
822 0.6035826338204793 -0.0709783303968049 0.0045712726005389115 112 105 106 0.61 59 0 60 0 61 0 62 0 64 0 65 0 
823 0.28250671629716884 -0.028696276647978913 0.0012189118859098347 117 110 103 0.4 59 0 60 0 61 0 62 0 64 0 65 0 
824 0.1026661050744282 -0.0021129895285330047 0.0020648026670584407 112 100 98 0.5 59 0 60 0 61 0 62 0 63 0 65 0 
825 0.9791747479983532 -0.11637519808089014 0.004482484519277685 174 195 207 0.23 59 0 61 0 63 0 64 0 65 0 
826 0.8905507115669309 -0.10067700559242343 -0.01236730981580636 92 91 95 0.53 59 0 61 0 64 0 
827 0.3307207488304589 -0.03358390031009251 0.003196007304632209 127 126 124 0.43 59 0 60 0 61 0 63 0 64 0 
828 -0.17705111253610284 0.02785777205314577 0.004477035130487916 155 171 185 0.31 59 0 61 0 63 0 
829 0.7743789975282631 -0.08850230208241416 0.007071030398941414 135 133 133 0.92 59 0 60 0 61 0 62 0 64 0 65 0 
830 0.6839494936685078 -0.3183686354395773 0.003492485703890713 153 144 143 0.63 59 0 60 0 62 0 64 0 65 0 
831 -0.9886229664449591 -0.11380368877313185 0.030396570233816256 144 141 138 0.86 59 0 60 0 62 0 
832 -0.1742130358951337 -0.20442184134942554 0.01192435466395425 141 133 130 1.0 59 0 61 0 64 0 
833 0.20723023239566185 -0.010416412144345188 0.003030076644543467 84 79 79 0.99 59 0 61 0 63 0 64 0 65 0 
834 0.19000068840127793 -0.00852676075341774 0.005710216116618927 99 95 97 2.47 59 0 60 0 61 0 62 0 64 0 65 0 
835 0.6368384854319797 -0.06907766411993455 0.005818525008403075 112 103 103 0.8 59 0 60 0 61 0 64 0 
836 0.4477610010853985 -0.044590379388998014 0.009876345709506351 114 105 110 1.51 59 0 60 0 61 0 62 0 63 0 65 0 
837 0.38093918053506504 -0.6511465881804878 0.0042348174730098 146 138 133 0.9 59 0 60 0 64 0 65 0 
838 0.057419526643343044 -0.5034807719149993 0.004426286355344811 117 114 115 0.22 59 0 60 0 62 0 65 0 
839 -0.5690370669805588 -0.4185099703823444 0.008493107595012761 169 164 163 0.62 59 0 61 0 63 0 64 0 65 0 
840 -1.0441621021815934 -0.4451031351023428 0.010500525693552865 159 150 146 0.58 59 0 60 0 62 0 64 0 65 0 
841 0.2838383800927524 -0.018099466946234988 0.0042089971973608975 123 119 113 0.45 59 0 60 0 61 0 62 0 64 0 
842 0.739294958966072 -0.3291827078214854 -0.0017480569677919 72 75 87 0.96 59 0 61 0 63 0 64 0 
843 1.048825584932759 -0.3798683425718107 0.0025542501406763396 101 100 102 0.52 59 0 61 0 63 0 64 0 65 0 
844 -0.4220343955410368 0.07341213510176425 -0.01690229020760592 93 82 84 0.31 59 0 60 0 61 0 
845 -0.18190176969866723 0.04382594881654589 -0.0004772338426821676 142 149 158 0.39 59 0 60 0 61 0 62 0 64 0 
846 0.14888755750682248 0.009184280025507419 0.0040615261455201335 104 97 94 0.49 59 0 60 0 61 0 63 0 64 0 65 0 
847 0.8142373859283645 -0.07643967768686999 0.0020597678876794756 125 115 115 0.38 59 0 60 0 61 0 62 0 63 0 64 0 65 0 
848 0.5781370111184199 -0.05100158825965884 0.0005126638411763196 141 132 129 2.05 59 0 61 0 64 0 65 0 
849 0.3705753854726266 -0.028395325020733164 0.0239006535632027 118 114 121 1.92 59 0 61 0 63 0 65 0 
850 0.06297309614365931 0.01448240545637447 0.003051209523036391 153 148 146 0.42 59 0 60 0 61 0 62 0 65 0 
851 0.19443526221570173 0.0063730528471598324 -0.0011104663203984622 135 133 129 0.53 59 0 60 0 61 0 62 0 63 0 64 0 65 0 
852 0.11601027933201258 0.016649174390227173 -0.004265271800707904 135 136 136 0.46 59 0 60 0 61 0 64 0 
853 0.45109791102745955 -0.03453134148760861 0.029740638471089653 115 106 110 1.25 59 0 60 0 62 0 
854 0.17564060454483665 0.008076689421692484 -0.012420007925359577 135 132 128 0.68 59 0 60 0 61 0 
855 0.5576888354778848 -0.3033892683190328 -0.008222104182317391 172 173 173 0.65 59 0 60 0 62 0 
856 -0.022062161183427964 -0.22893364031021712 0.007652346234425567 122 117 121 1.07 59 0 60 0 62 0 64 0 65 0 
857 0.2386673890443931 0.0018752863186756175 0.002161588263779546 86 87 85 0.48 59 0 60 0 61 0 63 0 
858 -0.22339774157066894 0.058723938793998065 -0.0010156249792803163 149 149 151 0.66 59 0 60 0 61 0 63 0 64 0 65 0 
859 0.3023683156583725 -0.0030058570204541946 0.0058442472192095085 65 73 89 0.64 59 0 60 0 62 0 64 0 
860 -0.3721987501305727 -0.4590450192058221 -0.0005447463554786314 123 129 133 0.72 59 0 60 0 61 0 62 0 63 0 65 0 
861 0.0585650852799795 -0.5295733335150629 0.00874293460873532 135 116 113 0.82 59 0 61 0 64 0 65 0 
862 -0.05515773081122877 -0.5110019491673036 0.008401781416321974 148 144 141 0.42 59 0 60 0 61 0 65 0 
863 -0.07746483073676214 -0.49911612429798013 -0.007087369829406054 157 145 139 0.71 59 0 61 0 63 0 
864 0.33138176499256433 -0.5767504258715869 0.012438535442911958 147 143 143 1.37 59 0 60 0 61 0 62 0 63 0 64 0 65 0 
865 0.43133371362337747 -0.29916060276801726 0.009778238018222751 174 181 183 0.83 59 0 60 0 62 0 64 0 
866 0.976292674842955 -0.08684616136796197 0.0045748299812464754 143 148 159 0.79 59 0 61 0 63 0 65 0 
867 -0.412619457813781 0.08140466029602 0.00851379820786291 110 104 103 1.9 59 0 60 0 61 0 
868 -0.641881196717345 0.11167867699059764 0.010804804533345758 133 113 106 0.39 59 0 60 0 62 0 
869 0.1713854821575429 0.020951016483765628 0.0007360565882756909 94 83 84 1.93 59 0 60 0 61 0 62 0 63 0 64 0 65 0 
870 0.15132009463112328 0.022060693207617832 0.0009964113464318025 95 88 86 0.46 59 0 60 0 64 0 65 0 
871 -0.7352191352381059 0.12367914124187879 -0.002809322998346131 126 108 100 0.29 59 0 60 0 62 0 
872 -0.7492726575996864 0.13049483077320417 -0.024912635227186453 125 102 101 0.1 59 0 60 0 62 0 
873 0.4469538882846793 -0.017555651754754376 0.010184329494912214 137 128 127 1.77 59 0 60 0 61 0 62 0 63 0 64 0 65 0 
874 0.15594418140962563 -0.26255768610367713 0.01324959347944521 131 123 122 1.47 59 0 60 0 61 0 65 0 
875 0.8472039477194833 -0.36109626019249497 0.0016162861771504833 155 149 150 0.58 59 0 60 0 62 0 64 0 
876 0.6195822448843764 -0.3361011052165789 0.02572226793284038 150 148 147 2.08 59 0 60 0 61 0 62 0 64 0 
877 -0.9785963450255033 -0.4470771506915686 -0.001236864179626096 159 164 162 0.8 59 0 60 0 62 0 65 0 
878 -0.6623762483916367 -0.15845022830956268 0.0031321616574939704 171 174 175 0.43 59 0 61 0 63 0 65 0 
879 1.0182372541052844 -0.3947083183389918 0.009553576259431873 138 127 110 0.61 59 0 61 0 63 0 
880 0.833455033949851 -0.3669080013349595 0.013998871309089056 149 142 141 1.29 59 0 60 0 61 0 62 0 63 0 64 0 
881 0.8121809820178989 -0.3658589446518039 0.012803711594393974 146 143 140 0.9 59 0 60 0 61 0 62 0 63 0 64 0 
882 -0.1309229849412199 0.0605290327962108 0.001251332967094232 147 152 155 0.27 59 0 60 0 61 0 62 0 63 0 64 0 65 0 
883 0.1147077323812612 0.025656310246767844 0.011898857464904378 120 115 114 0.97 59 0 60 0 61 0 62 0 63 0 64 0 65 0 
884 0.7910563231068162 -0.359217346593108 0.005352314548720427 115 109 109 0.27 59 0 60 0 61 0 62 0 63 0 64 0 65 0 
885 -0.2867280658977849 -0.2014691054895429 -0.010569367256735518 145 138 136 0.97 59 0 61 0 63 0 
886 -0.7513593932378766 -0.1544787979091754 0.0049394147489603135 123 115 114 1.23 59 0 60 0 65 0 
887 -0.8244755571794127 0.13862571533287527 0.005277788278262863 142 134 127 0.33 59 0 60 0 62 0 64 0 
888 1.1242765277376539 -0.09747130171079321 0.008704103270094521 94 88 90 0.69 59 0 61 0 64 0 65 0 
889 0.3023895729647115 0.008762286506053374 0.004370109924685117 94 89 89 0.49 59 0 60 0 61 0 62 0 63 0 64 0 65 0 
890 -0.4407521267316734 0.1002251219699673 0.001497137862454645 73 61 65 0.74 59 0 60 0 61 0 
891 0.9856120298758904 -0.3939222355319033 0.010689781433120382 146 143 139 0.39 59 0 61 0 63 0 64 0 
892 0.24809316317469077 -0.282527665601339 0.0008199629668088626 145 141 143 1.2 59 0 60 0 61 0 63 0 64 0 65 0 
893 -0.3845006579132354 -0.19894622421670072 0.0033999401299285026 146 131 131 0.44 59 0 60 0 62 0 
894 -0.8882533923256346 -0.14395194808204137 0.009926003471409262 119 101 101 0.62 59 0 60 0 62 0 64 0 
895 0.1558118059941802 0.0313882117140033 0.010514779843621813 96 79 79 1.47 59 0 60 0 61 0 
896 0.08767248967240016 0.04325514590718116 -0.0002566044448302218 113 101 98 0.76 59 0 60 0 61 0 63 0 64 0 65 0 
897 0.07082502261845525 0.04217675493765982 0.005423947916184835 97 81 82 0.89 59 0 60 0 61 0 62 0 63 0 65 0 
898 0.5135515982280261 -0.006293867625551175 0.0022175513327971075 139 130 130 0.37 59 0 61 0 65 0 
899 0.4746235076982288 -0.0031115066987835727 0.001101175163885637 172 171 172 0.48 59 0 60 0 62 0 
900 0.4321558348943981 0.0037740013830130925 -0.004190814962118594 133 123 123 0.55 59 0 60 0 62 0 64 0 
901 0.13781662363201708 0.04112942786409324 -0.010347578286563408 94 78 77 0.32 59 0 61 0 65 0 
902 0.11340481930715685 0.04035138094282864 0.00247863443214813 118 110 104 0.81 59 0 60 0 61 0 63 0 64 0 65 0 
903 -1.0238497220724407 0.15985183717151358 0.05915027241469972 121 114 114 0.21 59 0 60 0 62 0 
904 0.6201455219128975 -0.014597242712586778 -0.0008340708109610961 163 159 157 0.63 59 0 60 0 62 0 64 0 
905 0.22214906483215446 0.03272054909002764 0.0005658213270978152 146 133 125 0.3 59 0 61 0 65 0 
906 -0.3331136611726354 0.09706270080923163 0.003460822604663516 170 176 183 0.36 59 0 61 0 63 0 65 0 
907 -0.5819967446942669 0.126468276891878 -0.01235713236458369 128 115 105 0.35 59 0 61 0 63 0 
908 0.7456998924236979 -0.028295865901544093 0.004344871337520928 104 90 88 0.35 59 0 60 0 62 0 
909 0.3704076291777323 0.018377062934540667 0.0026063652961474393 109 98 93 0.42 59 0 60 0 61 0 63 0 64 0 65 0 
910 0.9507725351641203 -0.394535917869386 0.013386453236213569 177 183 185 0.51 59 0 61 0 63 0 64 0 65 0 
911 0.7217407048504569 -0.3581445921187094 0.012796400473421121 141 136 130 1.44 59 0 60 0 61 0 62 0 63 0 64 0 65 0 
912 0.06429867074506013 0.05798540929690532 -0.0007125134571728253 104 94 92 0.48 59 0 60 0 61 0 65 0 
913 0.1379041389803859 0.05358381206480367 -0.0008327419924440971 125 103 94 0.24 59 0 61 0 65 0 
914 -0.8282140312259677 0.16027356989586294 -0.002453141466074227 119 110 104 0.4 59 0 60 0 62 0 
915 0.8665897435071126 -0.38440573021819213 0.008121500123021264 163 156 150 0.4 59 0 60 0 62 0 64 0 65 0 
916 0.17635198123146045 -0.2808159802895044 0.007143441643423287 118 113 111 1.18 59 0 60 0 61 0 63 0 65 0 
917 0.13298868982484024 -0.2749294611678682 0.007178506407143459 144 138 135 1.0 59 0 60 0 61 0 62 0 63 0 65 0 
918 0.8136485846467743 -0.3784217846230169 0.006197100795088062 141 136 139 0.53 59 0 60 0 61 0 65 0 
919 0.053380501584835316 -0.26319545688509816 0.0006083260753206865 131 127 127 0.63 59 0 60 0 61 0 64 0 65 0 
920 0.5493440344271681 0.006471394388093077 4.7463468695330135e-06 142 139 137 0.87 59 0 60 0 64 0 65 0 
921 0.31987904526882693 -0.30393620328292636 0.0031335312167730667 144 134 134 0.33 59 0 60 0 62 0 64 0 
922 0.022778473618920714 -0.2643574846168132 0.006789310321084541 134 124 126 0.5 59 0 61 0 63 0 
923 -0.37464622929909464 -0.21218731678961167 0.0020418735095026896 149 140 134 0.59 59 0 60 0 61 0 65 0 
924 -0.23308533901049777 0.10376237543648814 -0.0036856591247609316 159 164 168 0.52 59 0 60 0 61 0 
925 -0.29047248157545724 0.11051368307649367 -0.001351960752434822 170 175 179 0.71 59 0 60 0 61 0 62 0 
926 -0.05083020220340362 0.0839273255340065 -0.012514006641209274 140 140 141 0.24 59 0 61 0 63 0 
927 -0.6446991352119977 -0.48355511732508905 0.002944104035448314 85 80 88 0.72 59 0 60 0 61 0 62 0 63 0 64 0 65 0 
928 0.6086725921967224 -0.5637750953051431 0.005253729756256265 149 139 135 0.28 59 0 60 0 62 0 
929 0.45353075580469504 -0.5377307826787309 0.003688208072514909 156 154 153 0.47 59 0 60 0 62 0 65 0 
930 -0.3540481573289497 -0.41394347414772625 -0.0022384422153949313 153 148 146 1.15 59 0 60 0 61 0 62 0 64 0 65 0 
931 -0.5796598789113634 0.1390074387677654 -0.0007257555605111321 136 130 125 2.13 59 0 60 0 61 0 62 0 65 0 
932 0.08862419780288633 0.06996779960367672 0.00176216817454522 105 94 87 0.4 59 0 60 0 62 0 65 0 
933 -0.19381649020447034 0.09963021929534233 0.011841883649570839 154 158 162 0.4 59 0 60 0 61 0 
934 -0.9570982830798923 0.1857563028938229 -0.004770448950565553 98 72 75 0.31 59 0 60 0 62 0 
935 0.49593096368872347 0.023758052749111802 0.0007289147835178866 119 118 116 0.63 59 0 60 0 61 0 62 0 64 0 65 0 
936 0.4146938793502173 0.031788947209469565 0.0022782462890791333 129 121 117 0.49 59 0 60 0 61 0 62 0 63 0 64 0 65 0 
937 0.23064847273722267 0.0526210368012604 0.008525121619472387 137 129 124 0.5 59 0 60 0 62 0 
938 0.7008797754813711 -0.004482915429658285 -0.0007559183765561972 104 106 115 0.45 59 0 60 0 61 0 62 0 63 0 64 0 65 0 
939 0.13655835697315188 0.06516325837695869 0.0023600724235290915 118 105 99 0.76 59 0 60 0 61 0 64 0 65 0 
940 0.43560336605323413 0.0319775917676447 0.0026158790146013633 81 72 81 0.28 59 0 61 0 65 0 
941 -0.6605933291733375 0.16016641421619937 -0.004833387510888576 113 107 104 0.77 59 0 60 0 62 0 
942 0.6354327742289307 -0.3595702832651404 0.009466668169644477 75 80 90 0.5 59 0 60 0 61 0 63 0 64 0 
943 0.19946740259656903 -0.29025021091368897 -0.0027723926548657296 161 165 173 0.26 59 0 60 0 61 0 
944 0.36895058618331045 0.04669354014388727 0.0007360063575929665 113 103 96 0.5 59 0 60 0 61 0 62 0 63 0 65 0 
945 0.6246923510379221 0.01317188715740436 0.0007637719708910584 124 116 115 0.9 59 0 60 0 61 0 62 0 64 0 65 0 
946 -0.3993548929011738 -0.21833418144044503 0.00978242176345212 131 125 125 0.2 59 0 60 0 64 0 
947 -0.18459953993266587 -0.24271863656183013 -0.002728684218625821 131 128 127 0.77 59 0 61 0 63 0 
948 0.788645076035106 -0.3947230222156367 0.016574177144179192 145 134 129 0.59 59 0 61 0 63 0 64 0 
949 0.41493027698507623 0.04325226623224665 0.0038879865026610894 111 103 100 0.56 59 0 60 0 61 0 62 0 63 0 64 0 65 0 
950 0.06270541029823062 0.08697601750870054 0.005628613686699202 123 118 113 0.75 59 0 60 0 61 0 62 0 63 0 64 0 
951 -0.7969732668515709 0.18320685955493388 0.015888053437072225 121 113 110 0.35 59 0 60 0 62 0 
952 0.4352159378987681 0.0436014663584775 -0.0011115793693503573 116 108 101 1.07 59 0 60 0 61 0 62 0 63 0 64 0 65 0 
953 -0.2770621312729322 -0.2374917953990433 0.006248545697880914 139 126 125 1.42 59 0 60 0 61 0 62 0 63 0 64 0 65 0 
954 0.7615788828960968 -0.39299522458348246 0.011443085658133123 161 161 160 1.22 59 0 60 0 61 0 62 0 64 0 65 0 
955 0.18388213331301384 0.07613654689413363 0.022237567413035952 57 56 68 0.98 59 0 60 0 61 0 
956 -0.6932494865837051 0.17784707875923522 -0.003545724628654101 119 118 114 0.42 59 0 60 0 62 0 
957 0.09348130719571712 0.08667514514307428 0.003513063876830147 96 82 81 1.36 59 0 60 0 61 0 62 0 63 0 65 0 
958 0.08081519186263941 0.08681373266400139 0.004823011857044479 112 97 95 0.67 59 0 60 0 62 0 65 0 
959 -0.6075590111776569 0.1746599194384999 -0.02455747411247211 91 90 91 0.95 59 0 60 0 62 0 
960 -1.103502508685609 0.2293914173364428 -0.02909107160594937 75 63 65 0.3 59 0 60 0 64 0 
961 0.6911784071708846 -0.653098090596789 0.015759691440563106 149 138 133 0.33 59 0 60 0 64 0 
962 0.30403784822803326 -0.5818730673412221 0.0033482460462352925 146 130 125 0.19 59 0 60 0 62 0 64 0 
963 0.8039113032461387 -0.5958073625051096 0.00906845061813022 147 147 146 0.59 59 0 60 0 64 0 65 0 
964 0.7836890768003653 -0.5927323780522143 0.009183285868063384 158 157 158 0.77 59 0 61 0 63 0 64 0 65 0 
965 0.25919874958973854 0.07086037131261258 0.001353864787255521 123 111 102 1.13 59 0 60 0 61 0 62 0 63 0 64 0 65 0 
966 0.22396017080064468 0.07440621695480121 0.0018392894265122361 108 96 88 0.44 59 0 60 0 61 0 63 0 64 0 65 0 
967 -0.5587638728717406 0.16502524187486312 0.004125953275559091 99 87 80 0.58 59 0 60 0 61 0 
968 0.6189120884107049 0.030046012482629947 0.0016122004326932782 79 76 80 0.29 59 0 60 0 62 0 64 0 65 0 
969 0.2761021485490831 0.07091110312156912 0.0039614008846518 85 77 80 1.03 59 0 60 0 61 0 62 0 63 0 64 0 65 0 
970 0.23972220083242846 0.07433353278173771 0.0011279460131601304 130 124 117 0.86 59 0 60 0 61 0 62 0 63 0 64 0 65 0 
971 -0.745278308890716 -0.1808466475815369 0.0008091544813213503 120 112 113 0.35 59 0 60 0 62 0 65 0 
972 0.7039615590289479 -0.3839636818751484 0.009728943908317689 179 181 183 0.42 59 0 61 0 64 0 
973 0.6782577406070696 0.02386211981877684 0.00327048022153531 118 107 106 0.67 59 0 60 0 61 0 62 0 63 0 64 0 65 0 
974 0.3738167824510674 0.06137057534851398 0.0010537985521934523 127 120 111 0.64 59 0 60 0 61 0 62 0 63 0 64 0 65 0 
975 0.35552048196923747 0.06397623085782878 -0.001418520392842515 129 121 111 0.5 59 0 60 0 61 0 62 0 63 0 64 0 65 0 
976 0.3412703285419625 0.06772196949442977 -0.007550103321600998 122 114 109 0.53 59 0 60 0 61 0 62 0 63 0 64 0 65 0 
977 -0.04515332777554537 0.11203702223720802 -0.004749077021227732 113 101 102 1.46 59 0 60 0 61 0 62 0 65 0 
978 0.0675885668576719 0.10198634462177558 0.0009053463697350494 107 102 98 0.64 59 0 60 0 61 0 64 0 
979 0.4680075436110256 0.05329563621222577 0.0026360632660924477 128 122 114 0.17 59 0 61 0 63 0 
980 0.4373102269061486 0.05587150404037533 0.0024246150674749334 119 110 101 0.37 59 0 60 0 61 0 62 0 63 0 64 0 65 0 
981 0.1962872789249117 0.09148588378638267 0.005314478878226669 98 92 94 1.17 59 0 60 0 61 0 62 0 64 0 65 0 
982 0.18124656772515468 0.09285451163889868 -0.0003714497872355782 126 120 112 0.62 59 0 60 0 61 0 63 0 64 0 65 0 
983 0.22366885591822938 0.09008116864877158 0.009052525671047418 75 72 77 1.02 59 0 61 0 63 0 
984 -0.1359847200070433 0.13283278506588397 -0.004956604272635667 160 157 153 0.49 59 0 61 0 63 0 
985 0.4977745918047758 -0.35693256591210865 0.01605189947256891 132 117 113 1.41 59 0 60 0 61 0 62 0 63 0 64 0 65 0 
986 -0.77678353006841 -0.1860810011190871 0.01174295737641562 92 93 99 0.49 59 0 60 0 62 0 64 0 
987 0.41865046202317346 0.07459209558062518 -0.018968205869055232 104 84 84 0.21 59 0 60 0 62 0 
988 0.37105514554687513 0.07683772897571661 0.00279111875450222 115 106 105 0.63 59 0 60 0 61 0 62 0 63 0 64 0 65 0 
989 0.35389561028967265 0.07879964300764797 0.006473315474117891 109 96 95 0.79 59 0 60 0 61 0 62 0 63 0 64 0 65 0 
990 -0.5058912439637576 0.17446076823082546 0.010212753918845463 74 60 54 0.22 59 0 60 0 61 0 
991 0.15926272017664322 -0.31003267230650955 0.01497746766280006 121 116 113 0.97 59 0 60 0 61 0 62 0 63 0 64 0 65 0 
992 -0.3776521518583822 -0.23215256144323615 0.0023140400840817588 113 98 100 0.21 59 0 60 0 61 0 
993 -0.48801778813459684 -0.2218795315457528 0.006746185935452509 109 95 92 0.34 59 0 60 0 61 0 
994 0.4887733985910758 0.0684960412655794 0.001393355376829053 158 160 156 0.74 59 0 60 0 62 0 
995 0.20192422526322007 0.10516236234074133 -0.0065620676107505105 108 100 99 0.5 59 0 61 0 63 0 64 0 
996 0.8069061581108623 -0.4012161284806087 -0.004631219765867556 148 142 141 0.3 59 0 60 0 61 0 
997 0.6115662423346908 0.058779379763587936 -0.0020122518304803716 161 156 155 1.08 59 0 60 0 62 0 65 0 
998 0.18464052193920222 0.10778102494706954 -0.00493883866149214 102 96 96 0.99 59 0 60 0 61 0 62 0 65 0 
999 -0.2081483676163024 0.14937184955535515 0.009748346595976232 136 129 131 1.53 59 0 60 0 61 0 64 0 65 0 
1000 0.6186717560876773 -0.6722233529616076 0.0035157939144332406 170 168 166 0.19 59 0 60 0 64 0 
1001 -0.7084820196735105 0.20315960375550046 0.011618151313368852 33 25 27 0.42 59 0 60 0 62 0 64 0 65 0 
1002 -0.7469845038148644 0.21087014739236565 -0.01449662720404099 53 47 48 0.49 59 0 60 0 62 0 
1003 -0.588710455547802 0.19197264597070202 0.023511471104235238 33 25 24 0.41 59 0 60 0 62 0 
1004 -0.6268338798142328 0.20205162796731485 -0.016661598764642793 36 29 28 0.19 59 0 60 0 62 0 
1005 0.01197864268957105 0.13375715298910823 0.0028410627498123286 133 126 126 0.81 59 0 60 0 61 0 62 0 63 0 
1006 0.7612145139767585 0.04751114442138615 -0.009924072149229746 102 94 92 0.36 59 0 60 0 62 0 
1007 0.4117120252671518 0.08317903715958319 0.007017243908346016 113 103 99 0.77 59 0 60 0 64 0 65 0 
1008 -0.012345794065425908 0.13820203027361655 -0.016175009687040776 131 122 122 1.05 59 0 60 0 61 0 62 0 63 0 64 0 
1009 -0.09658026744398918 0.1430457463626506 0.005509783395008405 84 70 73 0.61 59 0 61 0 63 0 
1010 -0.5443747765073601 0.19563932124016004 -0.022683409768286644 61 51 54 0.97 59 0 61 0 63 0 64 0 
1011 0.7830256428153588 -0.4049881520916322 0.0007254057435561734 141 141 140 0.67 59 0 60 0 62 0 65 0 
1012 0.5551044092637447 -0.37079644279675694 0.0034234797510344084 151 142 139 0.78 59 0 60 0 62 0 65 0 
1013 0.5321195819620088 -0.3686693114815863 0.00952809271553523 166 163 163 0.51 59 0 61 0 63 0 
1014 0.22733744340491513 -0.32392655280850235 -0.0006154363415449282 149 135 130 0.72 59 0 61 0 63 0 64 0 
1015 0.09778708962333071 0.12717289966075762 -0.004765418301755142 82 78 80 2.54 59 0 60 0 61 0 62 0 64 0 
1016 0.4437882676517757 0.0822977855703958 0.004461803924487695 120 119 122 0.86 59 0 60 0 61 0 62 0 63 0 64 0 65 0 
1017 0.39671501681184806 0.09018375504745102 0.0016553790386086842 126 115 111 0.6 59 0 60 0 61 0 62 0 
1018 0.32235115528602165 0.09629321400729696 -0.0003401584402085156 120 116 113 1.02 59 0 60 0 61 0 62 0 63 0 64 0 65 0 
1019 0.5586209226942525 0.07333024447390202 0.004768180517000564 155 154 154 0.82 59 0 61 0 63 0 64 0 65 0 
1020 0.2603491429853231 0.11038511392959138 -0.002931912090749389 100 99 102 0.37 59 0 61 0 64 0 
1021 0.21445867563631604 0.11514163845428382 0.0004195427098778737 79 78 82 0.91 59 0 60 0 61 0 65 0 
1022 0.11351083732512945 0.124492639353189 0.011994061626044772 91 81 78 1.37 59 0 60 0 61 0 64 0 
1023 -0.14679538742936538 0.15732567670723996 0.012475199916470725 131 125 126 1.24 59 0 61 0 63 0 
1024 -0.41992463206008546 0.18767250636833882 0.0037226167256914078 95 77 79 0.96 59 0 60 0 65 0 
1025 0.3485730928662567 0.10286241334808627 -5.787095456044611e-05 84 81 84 0.25 59 0 61 0 63 0 65 0 
1026 -0.2184552743912993 0.16496028084233616 0.003551846785841528 101 91 88 0.79 59 0 60 0 61 0 62 0 63 0 64 0 65 0 
1027 -1.1446674614642294 0.2738977316503893 -0.024110575181758742 122 116 113 1.19 59 0 60 0 62 0 
1028 0.7156036828697749 0.060917364527576345 0.006589731163565871 114 101 99 0.18 59 0 60 0 62 0 
1029 0.1929691914808087 -0.3301126636945664 0.017264687401792767 142 137 134 1.91 59 0 60 0 62 0 
1030 0.6615683351890671 -0.6774841072798276 0.007321338622408247 160 153 151 0.53 59 0 60 0 64 0 
1031 -0.75490869638339 -0.1962420707177065 -0.007778742112388937 118 109 115 0.41 59 0 60 0 65 0 
1032 0.705231016153735 -0.4006690432944473 0.004793881024763191 116 108 110 0.96 59 0 60 0 61 0 62 0 63 0 64 0 65 0 
1033 0.037367578699360915 0.14985213336596664 -0.010257494487236674 107 90 88 0.78 59 0 60 0 61 0 65 0 
1034 0.10241123164466492 0.1385772518999166 0.0010514834453025923 49 45 50 0.66 59 0 60 0 62 0 
1035 -0.3256534278176171 0.18445884865447676 0.0022724227146335707 129 122 121 0.9 59 0 60 0 62 0 64 0 65 0 
1036 0.2032493454399884 0.13010490373841865 0.0007395793920457194 55 52 57 0.9 59 0 60 0 61 0 62 0 63 0 64 0 65 0 
1037 0.19083668018301436 0.13080526714166574 0.0028539041854556135 64 54 56 0.97 59 0 60 0 61 0 62 0 64 0 
1038 0.11967603634802026 0.1377072194986012 0.004567765778728861 58 50 52 0.52 59 0 60 0 61 0 62 0 64 0 65 0 
1039 -0.2990177308138271 0.18492270221007612 0.007583859739495491 108 93 95 0.46 59 0 60 0 61 0 62 0 63 0 65 0 
1040 0.13120536342649358 0.13608889169967187 0.006954239926343586 43 35 36 0.52 59 0 60 0 61 0 62 0 64 0 65 0 
1041 0.33504670020691907 0.11795700764566253 0.00882732277934628 56 43 44 1.2 59 0 60 0 61 0 62 0 64 0 65 0 
1042 0.5830402011739126 -0.5464203593974569 0.006544925426991144 170 166 161 0.35 59 0 61 0 64 0 65 0 
1043 -0.08431229856095979 -0.44599001014527906 0.013155108967079165 147 145 144 0.78 59 0 60 0 61 0 63 0 64 0 65 0 
1044 -0.2643738809996953 0.18312708385450405 0.003445683594508253 121 117 120 0.36 59 0 60 0 61 0 62 0 63 0 65 0 
1045 0.28436485255299826 0.12100837702739548 0.013066050614528146 67 53 52 0.9 59 0 60 0 61 0 62 0 63 0 64 0 65 0 
1046 0.26144812623165925 0.1249546263536136 0.0031397502924837006 64 58 59 0.53 59 0 60 0 61 0 62 0 63 0 64 0 65 0 
1047 0.24500887305451147 0.1268388945437675 0.004541939154505847 43 37 40 1.02 59 0 60 0 61 0 62 0 63 0 64 0 
1048 0.23404060126647663 0.12558555381066178 0.013377409677128416 52 45 48 1.15 59 0 60 0 61 0 62 0 64 0 65 0 
1049 0.21776931907770813 0.1294073344219384 -0.0017624823434569947 66 63 65 0.57 59 0 60 0 61 0 62 0 63 0 64 0 65 0 
1050 0.559762272528165 0.09116464916852529 0.008863100434952198 119 111 112 1.13 59 0 60 0 61 0 62 0 65 0 
1051 0.34865144992404384 0.11735953908750046 0.0055119261230400785 64 52 53 0.52 59 0 60 0 61 0 62 0 63 0 64 0 65 0 
1052 0.322062175463653 0.12061611603467903 0.001962029892076167 33 26 30 0.66 59 0 60 0 61 0 62 0 63 0 64 0 65 0 
1053 0.619427614189729 -0.3912234744880919 0.0030928054741869992 147 137 132 0.75 59 0 60 0 61 0 62 0 63 0 64 0 65 0 
1054 0.4348660435761187 -0.3613840072510346 0.00612582469136469 146 140 139 0.45 59 0 60 0 62 0 65 0 
1055 0.06414617779723097 -0.30899763726491447 0.010397143344903492 85 84 92 0.43 59 0 60 0 64 0 
1056 -0.7753882295586229 -0.20110102761536042 0.004225837708021318 113 104 109 0.79 59 0 60 0 62 0 64 0 
1057 0.46706098803456686 0.10778648624570447 0.0060704972885714525 129 116 110 1.3 59 0 60 0 61 0 62 0 64 0 65 0 
1058 -0.6989800132526892 -0.4680198343413796 0.008194251541575603 153 151 149 0.37 59 0 60 0 62 0 
1059 0.377441223058969 0.11697980473522673 0.0006446587023380967 39 30 32 0.6 59 0 60 0 61 0 62 0 63 0 64 0 65 0 
1060 -0.09560143584883751 0.16940437610983178 0.0014682497462330524 139 129 129 1.85 59 0 61 0 65 0 
1061 0.44552699672108975 0.11165609894046158 0.0020401129980824884 90 87 85 0.24 59 0 60 0 61 0 62 0 63 0 64 0 65 0 
1062 -0.3943708064724928 0.20906606637223568 0.015079994801127983 122 109 109 0.7 59 0 60 0 61 0 63 0 65 0 
1063 -0.4541852751962612 0.2164887397235199 0.0027585652409845007 88 83 80 0.62 59 0 60 0 61 0 63 0 64 0 65 0 
1064 0.0668364817737066 0.15568958223897694 -0.00030747503475825333 33 29 35 0.45 59 0 61 0 64 0 65 0 
1065 0.04036064546415963 0.161362549907963 -0.007503420760143209 128 119 116 0.6 59 0 60 0 61 0 62 0 64 0 65 0 
1066 -0.2163275206427654 -0.26683624663130845 -0.008258354217858921 117 111 112 1.85 59 0 60 0 61 0 62 0 63 0 
1067 0.5845783600610701 -0.39067394675282285 0.004020661006109538 99 88 89 0.71 59 0 60 0 65 0 
1068 0.33134416425770996 -0.35010919068843227 0.006944801589660932 111 104 107 0.93 59 0 60 0 61 0 62 0 63 0 64 0 65 0 
1069 -1.0952945248475512 -0.1696181289040043 0.010355306850934776 77 86 96 0.63 59 0 60 0 62 0 65 0 
1070 0.6491009547895483 0.594387076192276 0.0015895449232101733 87 79 77 0.4 59 0 61 0 63 0 
1071 0.5289485698858754 0.6050719854167494 0.0052295868971914405 100 93 87 0.46 59 0 61 0 64 0 65 0 
1072 0.7169069764755347 0.09226216045535607 -0.0066938969583154595 106 95 95 0.24 59 0 60 0 62 0 
1073 0.788480738522275 0.09020783563019952 -0.02021494146448033 120 121 121 0.67 59 0 60 0 61 0 
1074 -0.08460860755458277 0.18360819734837358 0.009405371923499883 111 108 114 1.88 59 0 60 0 61 0 64 0 65 0 
1075 -0.28833644117230994 -0.2644251140606386 0.0020061716922730177 119 121 123 0.51 59 0 60 0 61 0 62 0 63 0 64 0 65 0 
1076 0.36232206490568997 -0.35828055343491305 -0.0021042829318165257 83 78 87 0.43 59 0 60 0 61 0 63 0 65 0 
1077 0.9417062917638996 -0.45147035342222563 0.005095638895142418 152 151 148 0.52 59 0 61 0 63 0 64 0 65 0 
1078 0.044214533096515796 -0.573557990061302 0.005281709804789703 131 129 137 0.75 59 0 61 0 63 0 64 0 65 0 
1079 -1.0062838348026015 0.28363374926926294 0.028456011027282013 142 144 144 0.75 59 0 60 0 64 0 
1080 0.5600991271567999 0.11633754262752638 0.010402296899751917 132 128 126 0.87 59 0 60 0 61 0 62 0 64 0 
1081 0.5063910981981965 0.12224731632439823 -0.0028841795209526566 133 128 129 0.02 59 0 60 0 62 0 
1082 0.12154688402349678 0.16675788739503167 0.023844918418050476 41 28 33 1.18 59 0 60 0 61 0 62 0 63 0 64 0 65 0 
1083 -0.5005396966599871 0.2340406390248408 0.010422782166891409 109 93 85 0.47 59 0 60 0 61 0 
1084 0.7198857329510906 0.1097436497226888 -0.01725967673175144 94 86 85 2.43 59 0 60 0 61 0 62 0 63 0 
