# 3D point list with one line of data per point:
#   POINT3D_ID, X, Y, Z, R, G, B, ERROR, TRACK[] as (IMAGE_ID, POINT2D_IDX)
# Number of points: 479, mean track length: 4.31
413 0.3323436540050344 0.16418919589656755 0.19415056517617968 75 78 79 0.33 21 0 22 0 23 0 
414 2.25926883801645 -0.10923316503905306 -0.45863122131460665 81 90 107 0.47 21 0 22 0 23 0 
415 2.215194001299915 -0.07647815204668626 -0.3921884480300091 156 160 170 0.22 21 0 22 0 23 0 
416 2.1542434542588547 -0.08760862734145067 -0.4140713270215952 150 157 159 0.41 21 0 22 0 23 0 
417 0.11503448704935826 -0.024019694482908516 -0.20602015012228836 62 56 52 0.33 21 0 37 0 38 0 42 0 
418 2.328409600085906 -0.06672645464119914 -0.3853899592204082 117 89 81 0.17 21 0 22 0 23 0 
419 2.12353887129642 -0.08928965962861196 -0.4203998538435062 163 172 183 0.09 21 0 22 0 23 0 
420 2.0923160395278195 -0.09729424308562706 -0.43530087067483736 179 185 189 0.14 21 0 22 0 23 0 
421 2.055008619434499 -0.07732796098957506 -0.39280717009574595 132 143 154 0.39 21 0 22 0 23 0 
422 1.9008685629220747 -0.04993217789675819 -0.3315678504234002 79 68 67 0.93 21 0 23 0 38 0 
423 0.9035886561865903 -0.022673313865883133 -0.25152921546429485 65 54 46 1.3 21 0 23 0 35 0 36 0 37 0 42 0 
424 -0.6526327160250082 0.013541817738143721 -0.14557192559170995 41 39 41 1.35 21 0 36 0 37 0 38 0 40 0 45 0 
425 0.6951219297463531 -0.016403355211723234 -0.24011188334811073 80 69 62 1.72 21 0 35 0 40 0 
426 0.2686694044503495 -0.0036730656127137197 -0.20514505763157342 47 40 38 1.25 21 0 22 0 23 0 35 0 36 0 37 0 38 0 
427 0.22932856282099504 -0.0014299211204279218 -0.20605077687334217 54 43 38 1.18 21 0 22 0 23 0 35 0 36 0 37 0 38 0 42 0 
428 1.6027786405106585 -0.07494804148403111 -0.39746678158701754 148 161 161 0.22 21 0 22 0 23 0 
429 1.5059414580296433 -0.051987024344237354 -0.3442399858329892 136 137 143 0.35 21 0 22 0 23 0 
430 -0.5787205118059155 -0.004478646009701468 -0.20463475303459333 81 91 102 0.58 21 0 37 0 38 0 
431 1.578531367778217 -0.05357396986166954 -0.35767124010506957 155 160 164 1.03 21 0 22 0 23 0 36 0 
432 1.307066095190898 0.20133877137911704 0.16235775349933346 113 117 124 0.89 21 0 22 0 23 0 
433 2.3348635414302956 -0.037174681782983776 -0.3877181538107912 109 80 68 0.17 21 0 22 0 23 0 
434 2.1252220535307798 -0.05747600316688431 -0.4253964829027179 139 114 105 0.49 21 0 22 0 23 0 
435 0.22067476642351852 0.028434438230015683 -0.21317740688076292 51 43 40 1.18 21 0 22 0 23 0 35 0 36 0 37 0 38 0 42 0 
436 -0.03321697378788707 0.01376570783467167 -0.2533130841706577 93 98 105 1.11 21 0 35 0 40 0 42 0 
437 -0.5352722002140264 0.031443524505155196 -0.22741967790997364 114 124 135 2.83 21 0 22 0 23 0 35 0 36 0 37 0 38 0 
438 -0.5790180788506731 0.038118715783927865 -0.21552758945463868 110 120 133 1.11 21 0 22 0 23 0 35 0 36 0 37 0 38 0 40 0 42 0 44 0 
439 0.0856418196155575 0.02852520243770457 -0.23879262824945224 60 62 63 0.63 21 0 23 0 36 0 
440 -0.6518661013249447 0.06616604330868958 -0.1676649604491992 65 64 66 1.18 21 0 35 0 38 0 40 0 44 0 45 0 
441 2.271498991771896 -0.024818782509855867 -0.39293971884354995 38 44 44 0.69 21 0 22 0 23 0 
442 0.8599737145785195 0.023575661268113748 -0.26044197293270754 81 67 58 1.21 21 0 22 0 23 0 35 0 36 0 37 0 38 0 
443 1.6389705374749046 -0.03329108171415235 -0.3987975815542585 151 164 169 0.22 21 0 22 0 23 0 
444 0.3311021153802929 0.26217559130274926 0.2369225802291932 132 134 137 0.32 21 0 22 0 23 0 
445 1.7243237574935433 0.004248204162204779 -0.33087260676207575 19 19 21 1.33 21 0 23 0 38 0 
446 0.8992197006929276 0.027517372034289316 -0.2653086165870733 48 45 41 1.29 21 0 23 0 35 0 36 0 37 0 38 0 42 0 
447 2.167570509606202 -0.04783638788649147 -0.4568993874488668 22 23 21 0.29 21 0 22 0 23 0 
448 1.4510702899810088 0.01367219925883056 -0.3305015044256795 43 38 37 0.5 21 0 22 0 23 0 
449 0.21733626149818724 0.06393954571321127 -0.23093592721728629 56 47 41 2.24 21 0 23 0 35 0 36 0 37 0 38 0 42 0 
450 -0.007684161261420908 0.05672179078697469 -0.2505476049141826 58 79 86 3.7 21 0 35 0 40 0 
451 1.8166762778010448 0.0059559555892914305 -0.36620254549698883 123 104 97 0.28 21 0 22 0 23 0 
452 1.432806143422723 0.2816503482419546 0.17935916021216203 103 93 89 1.05 36 0 38 0 40 0 42 0 44 0 
453 2.188765454773664 -0.023963774095383698 -0.4520120171610904 167 180 191 0.1 21 0 22 0 23 0 
454 2.124620312136227 -0.020617318596805437 -0.4454298224061102 169 181 192 0.35 21 0 22 0 23 0 
455 1.8458559778360266 0.014575882555082017 -0.3592141602574631 76 53 49 0.48 21 0 22 0 23 0 
456 2.089643086923379 -0.013107713757692489 -0.4326026108979125 169 182 193 0.27 21 0 22 0 23 0 
457 2.055659356658868 -0.007153263646563549 -0.41865670976360714 121 138 152 0.19 21 0 22 0 23 0 
458 2.3421813621735055 0.01043826765730321 -0.39999981268572393 57 44 44 0.19 21 0 22 0 23 0 
459 2.293183458512684 0.013053675514230697 -0.3942261232953834 105 82 74 0.59 21 0 22 0 23 0 36 0 
460 1.836941212545897 0.02917727129135422 -0.3674190265645131 85 62 53 0.45 21 0 22 0 23 0 
461 0.9092748108281091 0.3040003780921877 0.2147623835896464 60 39 32 1.35 35 0 36 0 37 0 42 0 
462 1.3390685411086989 0.2617380998167592 0.14763748463069581 76 73 75 1.28 21 0 22 0 23 0 
463 0.09603473422418934 0.08862624396508496 -0.2656450167520136 64 64 70 3.34 21 0 22 0 23 0 35 0 36 0 37 0 40 0 42 0 44 0 45 0 
464 -0.031058246367368536 0.08270480409457032 -0.2802708777222085 101 112 122 0.97 21 0 35 0 40 0 44 0 
465 -0.08578844082960885 0.09733952164981566 -0.2516722821584352 76 73 73 1.81 21 0 40 0 42 0 45 0 
466 -0.5771072558444431 0.10853936450584625 -0.24085307324677196 121 134 151 1.01 21 0 22 0 23 0 35 0 36 0 37 0 38 0 40 0 42 0 
467 -0.6456983634242963 0.12879731139941852 -0.2018457890870763 59 58 63 2.18 21 0 22 0 23 0 35 0 36 0 37 0 38 0 40 0 42 0 44 0 45 0 
468 -0.7073575487495303 0.13778505876909228 -0.18665503542949646 94 91 92 0.49 21 0 36 0 37 0 38 0 40 0 44 0 45 0 
469 -0.29816205416638064 0.3146992773584382 0.2187512732712067 104 99 102 2.03 21 0 22 0 23 0 
470 -0.29767061879134027 0.3280030953637739 0.2483750280118393 96 100 105 0.51 21 0 22 0 23 0 
471 -1.1915054484207843 0.14514119092360986 -0.18438208204206064 104 104 113 2.24 21 0 22 0 23 0 37 0 38 0 40 0 42 0 44 0 45 0 
472 1.4139765036199674 0.25143295929299125 0.12073417072719206 136 135 132 1.31 21 0 22 0 23 0 
473 0.36525986888229367 0.3261573310519735 0.2466427521676695 103 92 85 1.29 35 0 36 0 37 0 38 0 40 0 42 0 45 0 
474 1.4329655942294963 0.2477430394658341 0.10662627634197142 184 181 174 0.21 21 0 22 0 23 0 
475 0.32903024403338116 0.299546427247773 0.1930942045120716 86 80 78 0.76 21 0 22 0 23 0 
476 1.8862141317480194 0.04579017002042707 -0.36249430018122253 80 67 66 1.33 21 0 22 0 23 0 38 0 
477 0.8859981351756824 0.2649357078077886 0.12585297167061382 58 49 45 0.42 21 0 22 0 23 0 
478 -1.2019442233163666 0.18788599274518178 -0.16608260468712377 61 52 50 1.4 21 0 23 0 37 0 38 0 42 0 
479 2.3458217007512623 0.03430335934745643 -0.41290782839072104 68 52 54 0.6 21 0 22 0 23 0 
480 2.1880931383607347 0.0120480853149556 -0.45927251318241846 118 114 116 0.67 21 0 22 0 23 0 
481 0.6547356501358181 0.10619695755857055 -0.280977578034712 54 50 48 1.45 21 0 35 0 40 0 
482 0.12274325210232026 0.17532359521747148 -0.14929554001194711 59 68 76 3.15 21 0 22 0 23 0 
483 0.9908307248817229 0.085549276670304 -0.32833041847101596 61 63 59 1.81 21 0 22 0 23 0 36 0 38 0 
484 0.05294101806434476 0.10777498210037537 -0.31874563340015716 93 83 77 0.69 21 0 22 0 23 0 
485 0.8615083860917293 0.32062720331609695 0.19137712885310498 140 141 141 0.53 21 0 22 0 23 0 
486 2.3818490723420593 0.044755083610839186 -0.42801419002038177 108 74 65 0.41 21 0 22 0 23 0 
487 1.6414570230843424 0.04606223063922665 -0.43003947105415474 125 132 134 0.75 21 0 22 0 23 0 
488 0.7463902839165839 0.1202942887527596 -0.27923707203174786 54 46 44 0.84 21 0 22 0 23 0 35 0 36 0 37 0 
489 2.3283550753252573 0.050927889480543276 -0.4162505182090427 103 68 60 0.32 21 0 22 0 23 0 
490 1.85660484828418 0.06614406099532977 -0.38724495306705176 92 68 60 0.82 21 0 22 0 23 0 
491 1.884286162365837 0.0643214741254971 -0.39418071851139413 110 86 78 2.02 21 0 22 0 23 0 
492 0.9278270255289449 0.11641503710782847 -0.29805055823311344 46 34 31 1.14 21 0 22 0 23 0 35 0 36 0 37 0 38 0 
493 -0.5131385469199299 0.17035487280286743 -0.2754208145869662 110 121 135 1.06 21 0 22 0 23 0 35 0 36 0 37 0 38 0 40 0 44 0 45 0 
494 0.7817796132347359 0.1400370597805305 -0.2913285770613784 57 48 42 1.14 21 0 23 0 35 0 36 0 37 0 
495 2.251735471742356 0.042560082633812 -0.4826783304952141 85 96 112 0.27 21 0 22 0 23 0 
496 2.218669240592441 0.04739440649343862 -0.47133620968593865 152 170 172 0.43 21 0 22 0 23 0 
497 2.189351707180743 0.044896176549670874 -0.4776091694826493 156 170 176 0.19 21 0 22 0 23 0 
498 2.157645411372796 0.04711567734047539 -0.47483689142060836 175 182 188 0.32 21 0 22 0 23 0 
499 2.125721536831562 0.04872231984333064 -0.47118662240118003 180 191 197 0.24 21 0 22 0 23 0 
500 2.093422821415982 0.046362641171168006 -0.47705631851033975 192 202 203 0.31 21 0 22 0 23 0 
501 2.0571014287811287 0.056223409677126523 -0.4535154463942901 139 137 141 0.27 21 0 22 0 23 0 
502 0.1601435050341213 0.17684824462525484 -0.2591858000430297 53 50 47 1.34 21 0 22 0 23 0 35 0 36 0 37 0 38 0 42 0 
503 1.716742299415709 0.08270080177032796 -0.40679514911875325 41 29 27 0.25 21 0 22 0 23 0 
504 1.6684857790975136 0.05058555106566409 -0.4851997771691182 130 136 140 0.28 21 0 22 0 23 0 
505 1.6439692260290906 0.08156467874621684 -0.41382371667192186 131 135 137 1.97 21 0 22 0 23 0 36 0 38 0 42 0 
506 1.6014267784947622 0.06678485017807767 -0.44943136961569596 153 155 160 0.3 21 0 22 0 23 0 
507 0.8102237542155548 0.14516079952393623 -0.2965652420200797 96 92 82 1.03 21 0 22 0 23 0 36 0 
508 1.8156781879400508 0.09733529457511203 -0.3822849554789388 128 114 103 0.72 21 0 22 0 23 0 
509 2.298231135161032 0.07223288031612324 -0.4380534718894371 102 68 61 0.53 21 0 22 0 23 0 
510 -1.2535164172121527 0.24934807985064264 -0.21382529864072297 88 92 91 0.28 21 0 22 0 23 0 
511 0.2362515912832647 0.18806763757364903 -0.26654552252986297 87 80 72 1.27 21 0 22 0 23 0 35 0 36 0 37 0 38 0 
512 0.20429003815954772 0.1920567112096222 -0.25685728516448436 92 82 75 1.32 21 0 22 0 35 0 38 0 42 0 
513 0.9118438323677126 0.13838549942519024 -0.3468221084398295 90 74 58 0.06 21 0 22 0 23 0 
514 1.8666973832841873 0.11379353615567783 -0.38976705507566733 79 62 60 0.35 21 0 22 0 23 0 
515 1.57262925191595 0.09913954666787755 -0.4510173417833101 107 128 140 0.59 21 0 22 0 23 0 
516 2.123753826058156 0.08169483167565855 -0.4898315306101761 108 145 164 0.43 21 0 22 0 23 0 
517 1.429471505369367 0.14385126021336228 -0.3720390280282744 51 41 35 0.35 21 0 22 0 23 0 
518 -1.3974189534382493 0.32910408425449617 -0.19792118730652397 101 89 83 0.6 21 0 37 0 38 0 40 0 42 0 44 0 45 0 
519 1.8572209048080526 0.143298603682796 -0.38995725987782504 96 74 67 1.04 21 0 22 0 23 0 38 0 
520 1.7695853993813084 0.14852221532292909 -0.37960728223218565 63 61 59 1.12 21 0 22 0 23 0 36 0 38 0 
521 1.4517314345536694 0.1528048517814405 -0.3824642405424077 40 35 34 0.31 21 0 22 0 23 0 
522 2.0210533296659916 0.12921055895265016 -0.4186137900801443 100 84 72 0.27 21 0 22 0 23 0 
523 0.9908633423877422 0.1830883439458761 -0.3631723636015157 90 91 89 1.9 21 0 22 0 23 0 35 0 38 0 
524 1.9639378306615805 0.13683864176705046 -0.4304156805488427 108 97 87 1.21 21 0 22 0 23 0 
525 1.6416506216609301 0.14537170979343872 -0.4361534770533245 98 111 114 2.07 21 0 22 0 23 0 36 0 37 0 38 0 42 0 
526 1.6007364839247809 0.12659056782993117 -0.48196816310435137 115 133 133 0.7 21 0 22 0 23 0 
527 2.252066664148858 0.10752230574138666 -0.5067226090220396 48 72 88 0.36 21 0 22 0 23 0 
528 1.5755678940975282 0.14017669252607032 -0.46099783609859657 148 159 163 0.3 21 0 22 0 23 0 
529 2.1899863077744772 0.11357226968413797 -0.503524217165479 150 161 173 0.38 21 0 22 0 23 0 
530 2.125245872433206 0.12059800155056477 -0.4876472566846812 161 173 181 0.41 21 0 22 0 23 0 
531 2.266444864423124 0.11189535910475285 -0.5171603238627216 78 85 95 0.74 21 0 22 0 23 0 
532 -0.5801146004626541 0.3138218121566512 -0.28296105747364253 16 14 16 1.81 21 0 22 0 38 0 42 0 
533 1.5053496622858542 0.1711146154137799 -0.42909894139336613 138 142 143 0.4 21 0 22 0 23 0 
534 1.721964958845022 0.1743362890931262 -0.41515670490682444 24 16 15 0.66 21 0 22 0 23 0 36 0 38 0 
535 0.5985044155278321 0.2469027291133023 -0.3391879103375047 22 15 15 0.53 21 0 40 0 45 0 
536 0.3507919813454679 0.4354733750340206 0.11789427721096635 26 21 21 0.51 21 0 22 0 23 0 
537 0.35846862640586363 0.4313080289958074 0.10517635225742361 27 23 21 0.82 21 0 22 0 23 0 
538 0.36068243351924095 0.42533909818967225 0.08146983317031786 25 24 24 0.67 21 0 22 0 23 0 
539 0.39820392995231824 0.4254584786043974 0.08120689897938993 15 16 18 0.67 21 0 22 0 23 0 
540 2.3364192186207875 0.17467852019529218 -0.40399645750778157 123 103 94 2.77 21 0 23 0 38 0 
541 1.7283979528293505 0.19707970611280723 -0.39837620755571923 56 56 52 1.32 21 0 23 0 36 0 38 0 
542 0.8171994329219314 0.44725547735659005 0.1638190874769221 121 124 131 0.78 21 0 22 0 23 0 
543 -0.19505733122334867 0.5265034401453038 0.22197871018494508 47 46 47 1.05 21 0 22 0 23 0 
544 -0.22205415655643834 0.4977988207729923 0.1329520173187202 45 47 48 1.18 21 0 22 0 23 0 
545 -0.19370961071868031 0.5177087586162538 0.19210002374791535 28 32 34 1.09 21 0 22 0 23 0 
546 2.2755988447775692 0.16902410140555196 -0.45291374357384306 39 43 45 0.64 21 0 22 0 23 0 
547 1.9958798870882484 0.18261922424365856 -0.44009280094429115 62 57 58 0.14 21 0 22 0 23 0 
548 -0.2136688265019837 0.5078332008453805 0.15630778551142388 28 23 23 0.95 21 0 22 0 23 0 
549 1.2488784702555504 0.38974234023725773 0.03154985405211774 11 11 12 0.59 21 0 22 0 23 0 
550 2.3495845167918086 0.17484651177921556 -0.47883437689971864 143 124 113 0.58 21 0 22 0 23 0 
551 -0.2009161338868808 0.5266061375068011 0.14004771590618126 34 39 46 1.26 21 0 22 0 23 0 
552 2.112731779633062 0.19388781402106348 -0.4830375314550343 38 26 18 1.18 21 0 22 0 23 0 
553 2.03484262693019 0.24550820758279202 -0.3412521353546355 65 50 39 4.11 21 0 22 0 23 0 36 0 
554 2.286869265443416 0.201836456962735 -0.44659612702360296 95 91 78 0.7 21 0 22 0 23 0 36 0 
555 2.2699834166331074 0.18888134869313694 -0.48979093198467455 43 30 23 0.93 21 0 22 0 23 0 
556 2.188841420922996 0.2010985351783749 -0.46139866014088127 32 23 19 0.34 21 0 22 0 23 0 
557 1.9919057478903146 0.23227072178535757 -0.4240242465452668 103 90 80 0.56 21 0 22 0 23 0 
558 -0.6268159732056968 0.6037567335720299 0.18911365518343537 46 39 44 1.31 21 0 22 0 23 0 
559 -0.5950567017825974 0.595420959319743 0.16276419380878382 65 63 68 0.43 21 0 22 0 23 0 
560 2.3494136457928425 0.20982337387453837 -0.46557849879552815 114 106 100 0.48 21 0 22 0 23 0 
561 -0.31579599707262906 0.6079210327045127 0.23479745544503028 60 61 65 0.98 21 0 22 0 23 0 
562 -0.3506548126459006 0.6086907291978757 0.23074946747617187 21 19 26 1.22 21 0 22 0 23 0 
563 -0.25830795750675617 0.6116008842601505 0.24178946909114662 16 23 27 0.48 21 0 22 0 23 0 
564 1.399402576414826 0.45162106558327225 0.10113580201755279 135 131 127 0.2 21 0 22 0 23 0 
565 -0.25966716271746226 0.6019632733328929 0.20602959836529378 19 20 22 2.14 21 0 22 0 23 0 
566 -0.10725380694942438 0.5762456763070227 0.15178604512475435 40 42 43 1.21 21 0 22 0 23 0 
567 -0.1337251771774952 0.5826962227614537 0.1631423800577958 23 24 27 1.12 21 0 22 0 23 0 
568 -0.13688680034929096 0.5869772235342104 0.17846555866528213 22 22 25 0.52 21 0 22 0 23 0 
569 -0.19706696348366515 0.5914468245616664 0.18024185101605195 22 22 22 0.31 21 0 22 0 23 0 
570 2.2261114763246725 0.22762887299423373 -0.46784750045708434 93 83 77 0.52 21 0 22 0 23 0 
571 2.3291371953954023 0.21989983342558794 -0.4879400756685474 109 90 80 0.52 21 0 22 0 23 0 
572 2.2962773001656718 0.22658591763938896 -0.47131361040292996 114 94 85 1.18 21 0 22 0 23 0 
573 2.3461408202720193 0.22426218806276144 -0.4836061705455532 95 72 67 1.57 21 0 22 0 23 0 
574 2.0545044503310224 0.25604202252972574 -0.44272738266591893 111 99 89 1.86 21 0 22 0 23 0 
575 -0.41534299438555 0.6436473670373452 0.22612485067822097 14 14 18 0.92 21 0 22 0 23 0 
576 0.20150224677905393 0.5768280945010839 0.1581593261340446 50 53 57 0.19 21 0 22 0 23 0 
577 2.2752890638828918 0.23899435544852804 -0.4821431030291571 133 124 114 0.38 21 0 22 0 23 0 
578 -0.3707804680450719 0.6454811789370464 0.22854566394985487 33 34 38 0.54 21 0 22 0 23 0 
579 1.4556600788833558 0.44908590114115454 0.032998918718887604 50 39 31 0.63 21 0 22 0 23 0 
580 -0.32809184797588875 0.6414557573203138 0.21200132613777622 21 20 24 1.12 21 0 22 0 23 0 
581 -0.3623030792880537 0.6414450777042274 0.20781219568528453 27 27 30 0.98 21 0 22 0 23 0 
582 2.010239637064224 0.2669856238625527 -0.4532536955091532 118 99 88 0.69 21 0 22 0 23 0 
583 -0.1590685680596453 0.5903944520742382 0.08421230137409319 32 25 28 0.75 21 0 22 0 23 0 
584 -0.15128668578747095 0.6173916333166803 0.17424811694513775 37 33 34 0.26 21 0 22 0 23 0 
585 -0.22361548140523013 0.6288364465994928 0.18790514077568754 38 45 51 1.51 21 0 22 0 23 0 
586 -0.20310988630954285 0.6392000465254645 0.22239198437492247 26 20 25 0.69 21 0 22 0 23 0 
587 -0.22245367264479898 0.624680313111987 0.16883654700668305 27 26 28 1.31 21 0 22 0 23 0 
588 2.2511534990216124 0.25336373870455675 -0.4762702428811072 128 113 104 0.52 21 0 22 0 23 0 
589 2.192858265005218 0.25294437051366264 -0.49042141226105795 110 101 89 0.61 21 0 22 0 23 0 
590 1.4416732752306383 0.46265877234863245 0.038992322118047484 113 107 103 0.4 21 0 22 0 23 0 
591 2.1318400956910466 0.26308049935378297 -0.5064181981936836 100 79 68 1.75 21 0 22 0 23 0 
592 2.068267261462769 0.26874780968876916 -0.4991555590279284 102 85 72 1.44 21 0 22 0 23 0 
593 -0.1586577080586421 0.6579606575189103 0.21192579628060626 24 26 30 0.29 21 0 22 0 23 0 
594 2.272064191593591 0.26539832778125294 -0.4969461038291132 123 105 91 1.25 21 0 22 0 23 0 
595 2.2340065442967747 0.26582977166734867 -0.4981179813725513 122 104 92 0.13 21 0 22 0 23 0 
596 1.2833498174429268 0.4999290487918881 0.06674282079075544 58 55 57 1.81 21 0 22 0 23 0 
597 0.4142097014037678 0.6201131684163311 0.21009488163638457 29 24 29 0.72 21 0 22 0 23 0 
598 0.4362307737230059 0.6184702129747915 0.2075015691889699 38 33 36 1.18 21 0 22 0 23 0 
599 2.121304879413527 0.28657558719439447 -0.4926813523758016 124 115 101 1.62 21 0 22 0 23 0 
600 2.270995359578736 0.2830290677095353 -0.4881426883951516 139 119 104 0.7 21 0 22 0 23 0 
601 2.250701749845857 0.28479143509229404 -0.4939873708115294 119 77 63 0.2 21 0 22 0 23 0 
602 2.309104985455206 0.28500495876966786 -0.5098064414663992 91 55 45 0.6 21 0 22 0 23 0 
603 2.054632772097654 0.307440550671602 -0.4807583614109051 72 54 50 0.2 21 0 22 0 23 0 
604 1.2621732637950152 0.5318970554089623 0.08568681641742404 59 59 60 2.54 21 0 22 0 23 0 
605 0.40280840228817283 0.6394546963424343 0.178364594735837 56 48 49 0.72 21 0 22 0 23 0 
606 2.0852873065385724 0.3147237560576167 -0.502938638907264 119 100 81 0.78 21 0 22 0 23 0 
607 1.4638584344719618 0.5227841777340839 0.07184805636675762 131 139 139 2.36 21 0 22 0 23 0 
608 2.1094121972360034 0.3196708867810372 -0.4909972796200711 125 99 86 0.85 21 0 22 0 23 0 
609 1.6771591997288888 0.5621628618010653 0.2395731075303329 24 39 28 0.2 21 0 22 0 23 0 
610 1.6071225111247256 0.5378514857896183 0.13770214282371906 59 49 45 1.28 21 0 22 0 23 0 
611 0.7211628294516303 0.6294649232690936 0.18453776771756947 42 43 49 0.42 21 0 22 0 23 0 
612 0.21721596268293186 0.7330124910027055 0.35572015911823507 31 25 28 1.64 21 0 22 0 23 0 
613 -0.12016323757370406 0.7614795225400387 0.3304732898369427 90 90 95 0.48 21 0 22 0 23 0 
614 -0.12983638005149267 0.7670550938646866 0.34183936442231033 87 86 91 0.26 21 0 22 0 23 0 
615 0.4065682926183635 0.6903261163460027 0.24392929781690675 56 55 61 0.85 21 0 22 0 23 0 
616 1.2759415029226508 0.5773298804156028 0.13128649833740158 61 54 52 0.66 21 0 22 0 23 0 
617 -0.12145596891564114 0.7947850468932166 0.40467981065341596 32 32 36 0.7 21 0 22 0 23 0 
618 1.3399683384913694 0.5768021505221975 0.13447587844675812 93 85 86 1.41 21 0 22 0 23 0 
619 -0.1134972487362334 0.7998146689994247 0.4239109978206994 33 28 31 0.2 21 0 22 0 23 0 
620 0.19031122830122044 0.7555480216505325 0.3361455644408706 49 49 54 0.67 21 0 22 0 23 0 
621 0.4260514567434977 0.7257082995866523 0.3023319602219472 29 29 35 0.4 21 0 22 0 23 0 
622 1.5255476356439686 0.5417984954968232 0.018195993082350093 27 23 24 0.48 21 0 22 0 23 0 
623 0.17774963860753862 0.7646708931530016 0.34156323371554165 29 28 31 0.14 21 0 22 0 23 0 
624 1.5046557432271253 0.5458473523833457 0.022809136990184165 30 31 31 0.38 21 0 22 0 23 0 
625 0.18746356659914112 0.7743677207749041 0.36965516514249974 19 21 26 0.45 21 0 22 0 23 0 
626 0.18621978769886927 0.7864314204914915 0.4035580556419651 26 26 33 0.46 21 0 22 0 23 0 
627 -0.10126456227975411 0.796557008148281 0.31476572815941695 18 15 14 0.25 21 0 22 0 23 0 
628 0.4313881126476482 0.7444928470381236 0.3183059728054747 88 80 84 0.67 21 0 22 0 23 0 
629 0.9734985387895815 0.6681185961147227 0.21390321596164763 53 53 58 0.9 21 0 22 0 23 0 
630 0.4393176667603601 0.7773301914480093 0.3957783655890328 26 27 32 0.61 21 0 22 0 23 0 
631 1.9509051623704312 0.5252039231813384 -0.008487721595705766 33 27 25 0.3 21 0 22 0 23 0 
632 0.17958030899899957 0.7873254563884194 0.31201513163170924 20 14 16 2.97 21 0 22 0 23 0 
633 2.0169409747361025 0.5263591163337251 0.001003996280780517 39 33 31 1.29 21 0 22 0 23 0 
634 2.0741954227651727 0.5213173721590589 -0.012330220815899628 40 34 35 1.04 21 0 22 0 23 0 
635 2.0416106530152147 0.5229616059038538 -0.01157261548571109 26 24 21 0.14 21 0 22 0 23 0 
636 2.1203310638216064 0.5191653069205356 -0.011721191853053758 77 68 71 0.43 21 0 22 0 23 0 
637 2.109349703139253 0.5198805317032867 -0.011786870255085735 60 51 53 0.25 21 0 22 0 23 0 
638 2.095045154902527 0.5184266885230693 -0.021527923630647927 41 30 33 1.87 21 0 22 0 23 0 
639 0.7352142026924819 0.7311399106513493 0.29418410660587657 36 38 45 0.7 21 0 22 0 23 0 
640 0.43036256899936937 0.7962982631522444 0.4054626399674601 19 21 26 0.59 21 0 22 0 23 0 
641 2.163061529280238 0.5107512654054249 -0.04460936917966207 37 26 27 0.11 21 0 22 0 23 0 
642 2.1474945699782264 0.5182645188320318 -0.018606959799191136 30 22 21 1.03 21 0 22 0 23 0 
643 2.132411693932987 0.5179713983766073 -0.023964834907026167 30 27 25 0.53 21 0 22 0 23 0 
644 1.679516031161044 0.6162862018472537 0.2188408860605089 8 12 9 0.35 21 0 22 0 23 0 
645 1.5270447035417487 0.5770792803034656 0.005311631106084569 35 32 33 0.54 21 0 22 0 23 0 
646 0.4806442781982325 0.8301111643027596 0.40155518073625474 62 55 47 0.93 35 0 36 0 38 0 40 0 42 0 44 0 45 0 
647 0.7596729899305861 0.7303352857934012 0.27331703513476757 85 70 73 0.49 21 0 22 0 23 0 
648 1.270698695906388 0.6548098916536109 0.19521397879369973 44 51 59 0.22 21 0 22 0 23 0 
649 1.4658746200867059 0.6150736477586021 0.10509174246146813 63 57 56 0.64 21 0 22 0 23 0 
650 1.054509157688088 0.6817417236075539 0.18779703067656284 53 43 43 0.66 21 0 22 0 23 0 
651 0.9868425204620248 0.7414435091279421 0.38548492259286493 17 18 23 0.69 21 0 22 0 23 0 
652 0.5173111349035543 0.7728547018074858 0.2851050162009452 13 9 9 0.51 21 0 22 0 23 0 
653 1.7182605760947578 0.6306392229096548 0.2215591934833876 19 20 17 0.35 21 0 22 0 23 0 
654 1.4280181267997774 0.6478198201971879 0.17554150979008076 94 88 91 0.27 21 0 22 0 23 0 
655 1.0051533267221173 0.7209648700283018 0.2617385781381909 93 77 78 0.58 21 0 22 0 23 0 
656 2.0517179946816024 0.575738984292746 0.09090344517824156 130 130 81 0.36 21 0 22 0 23 0 
657 1.9846155921186734 0.5855461602456399 0.10194556670413113 70 72 48 0.27 21 0 22 0 23 0 
658 0.7368972485463506 0.7741541456754235 0.325544330105509 19 18 23 0.79 21 0 22 0 23 0 
659 2.132912358534095 0.5428550084615615 -0.027257234291895638 44 36 35 0.51 21 0 22 0 23 0 
660 1.3031229991007582 0.6707708714736093 0.1739890503067163 54 41 40 0.26 21 0 22 0 23 0 
661 2.1537369285464467 0.5442139299898235 -0.02852711865430224 28 30 20 0.42 21 0 22 0 23 0 
662 0.7305385622530514 0.7639521058540439 0.26834944066113775 10 9 9 0.44 21 0 22 0 23 0 
663 1.7746965358549684 0.638916587964559 0.2240285203058341 16 21 13 0.49 21 0 22 0 23 0 
664 1.1261597592617578 0.7148912054536987 0.255645209458339 102 92 94 0.28 21 0 22 0 23 0 
665 0.781681087202299 0.7636856488129276 0.2811584151777593 11 6 7 0.92 21 0 22 0 23 0 
666 1.394344886836567 0.6659291456203738 0.16226485105711075 53 45 48 0.47 21 0 22 0 23 0 
667 1.7481325297197088 0.6466453005103251 0.22549131829480418 33 47 42 0.29 21 0 22 0 23 0 
668 1.4469084851258074 0.6658176194554116 0.16336680361380185 55 49 51 0.38 21 0 22 0 23 0 
669 1.2740390532089267 0.706545825736869 0.24656403865361143 54 55 62 0.26 21 0 22 0 23 0 
670 1.6841400765792744 0.6518527244539146 0.19703012086810467 11 17 11 0.43 21 0 22 0 23 0 
671 0.7385355897151111 0.805067618603744 0.37347374521301746 62 51 50 0.45 21 0 22 0 23 0 
672 0.9848072138245272 0.7640931016175363 0.3160813239334228 17 18 23 0.3 21 0 22 0 23 0 
673 1.7955539005744428 0.6494546044509094 0.2130058058365618 9 10 5 0.4 21 0 22 0 23 0 
674 1.1464874787043642 0.731283286272485 0.24584227632117361 56 44 44 0.55 21 0 22 0 23 0 
675 1.0179904089354923 0.7543630016371922 0.26433780229764525 8 8 8 0.51 21 0 22 0 23 0 
676 2.130690373264869 0.574296121007632 -0.02321529656114818 39 40 37 0.67 21 0 22 0 23 0 
677 0.9844657950686494 0.7774782707112406 0.30894114166447006 90 55 52 0.32 21 0 22 0 23 0 
678 1.7580415073863582 0.6691999462072811 0.22450066443462502 18 21 17 1.58 21 0 22 0 23 0 
679 2.150996942774013 0.5795881667409911 -0.014465751365722035 81 84 69 1.13 21 0 22 0 23 0 
680 1.128475396500484 0.7480846263752488 0.24311104239848969 24 23 22 0.23 21 0 22 0 23 0 
681 1.9239175560558812 0.6350789561763625 0.13226974090220334 51 61 38 0.51 21 0 22 0 23 0 
682 1.4945448805492345 0.7014259588951046 0.22993760949758713 87 74 73 0.32 21 0 22 0 23 0 
683 0.9918676671367017 0.7986283248735785 0.3707474059583016 49 43 41 0.5 21 0 22 0 23 0 
684 1.0595772396060261 0.7820067072561847 0.3283541538092096 58 26 21 0.67 21 0 22 0 23 0 
685 1.272021284781776 0.748727315992734 0.282186622085578 20 21 26 1.26 21 0 22 0 23 0 
686 1.3903306085990232 0.7240972748228601 0.23222283267009658 67 62 65 0.71 21 0 22 0 23 0 
687 1.995897760911391 0.6607957254203889 0.2003142862201932 62 73 39 0.34 21 0 22 0 23 0 
688 1.3726294106268007 0.7372493774391116 0.22851016409378122 13 11 11 0.44 21 0 22 0 23 0 
689 1.1086665042438626 0.815852342163512 0.4255545093254911 75 47 44 2.73 21 0 22 0 23 0 
690 1.2842093004829949 0.7659996839548648 0.295757843112596 59 43 43 0.43 21 0 22 0 23 0 
691 1.598921575756718 0.7055856503185133 0.16032140212556878 67 56 51 1.6 21 0 22 0 23 0 
692 1.4960256819438007 0.7331678609385832 0.22306774618517022 14 14 12 0.54 21 0 22 0 23 0 
693 1.6218511247250795 0.7052210797143647 0.15903903519683538 51 45 41 2.57 21 0 22 0 23 0 
694 1.2854403152474203 0.7874404043833367 0.34838341723133803 32 28 28 0.64 21 0 22 0 23 0 
695 1.6687347938836699 0.7127708858781234 0.20897766770742843 54 54 53 0.42 21 0 22 0 23 0 
696 1.690380009422323 0.7118294516330136 0.20799723172148732 42 42 38 0.58 21 0 22 0 23 0 
697 1.9899780299608316 0.6749290830667474 0.18298040824808637 16 20 11 0.78 21 0 22 0 23 0 
698 1.559486243639193 0.731169752823937 0.21471472500282918 13 13 12 0.55 21 0 22 0 23 0 
699 1.7575701005715958 0.7094598955522887 0.20179960049568701 60 57 53 0.47 21 0 22 0 23 0 
700 2.00567237849432 0.6840075142674162 0.20646197776606345 21 26 8 0.21 21 0 22 0 23 0 
701 1.622562535675893 0.727674557653634 0.20453171639592527 80 59 55 0.56 21 0 22 0 23 0 
702 1.7797654020715303 0.7091478559304665 0.2013395120060577 110 107 100 0.39 21 0 22 0 23 0 
703 1.8061260741336538 0.6997001341603484 0.15206331943532336 62 50 46 2.79 21 0 22 0 23 0 
704 1.6472152211290758 0.7295028262860141 0.21087065221531076 85 52 49 0.54 21 0 22 0 23 0 
705 1.668255895486911 0.7272278127453576 0.20568187996975995 89 63 56 0.4 21 0 22 0 23 0 
706 1.7136367505434034 0.7266602270487765 0.2030413693139994 76 55 52 0.75 21 0 22 0 23 0 
707 1.7355745110037337 0.7252265727708002 0.20308157743698474 68 52 46 0.38 21 0 22 0 23 0 
708 1.8744931897183716 0.6973380524628993 0.140140159693245 111 110 103 2.71 21 0 22 0 23 0 
709 1.9779550963170227 0.6959732261437369 0.18450704509593208 30 29 26 0.78 21 0 22 0 23 0 
710 1.933928342975862 0.7037537230061293 0.19227060552733 67 63 61 0.28 21 0 22 0 23 0 
711 1.757790197233055 0.72587354121698 0.20176692708304889 73 61 57 0.35 21 0 22 0 23 0 
712 1.9565612684021292 0.7028238206278753 0.1929496734980738 26 20 16 0.92 21 0 22 0 23 0 
713 1.801995305752426 0.7233116159084155 0.1976604747135855 88 70 67 0.48 21 0 22 0 23 0 
714 1.8236365453408683 0.724059131620514 0.19700055870594335 79 62 58 0.28 21 0 22 0 23 0 
715 1.8836524666657386 0.729918453479294 0.2434508395252677 89 70 67 3.08 21 0 22 0 23 0 
716 1.7233243304498294 0.7547177242132295 0.27884926827539824 61 47 47 0.42 21 0 22 0 23 0 
717 2.0118795793681024 0.7091956126806284 0.19748537349564166 49 41 37 0.55 21 0 22 0 23 0 
718 1.97154750318752 0.7138069286749796 0.19755314343723995 60 46 45 0.52 21 0 22 0 23 0 
719 1.7479506228990938 0.7487846793263715 0.2398067797889578 82 59 57 2.6 21 0 22 0 23 0 
720 1.766135006487652 0.74537517943448 0.22288780574837652 73 55 53 2.55 21 0 22 0 23 0 
721 1.9567380839663 0.7199121640036105 0.18222433391754778 78 60 56 0.76 21 0 22 0 23 0 
722 1.9794883808422716 0.7213928703863062 0.18170853749624416 73 44 39 0.49 21 0 22 0 23 0 
723 1.8280092086249473 0.7508490801156696 0.2537805403632001 85 64 63 1.32 21 0 22 0 23 0 
724 0.5496566681091684 -1.0798670172366633 0.766241346958829 158 167 175 1.39 22 0 23 0 37 0 38 0 40 0 42 0 44 0 45 0 
725 1.4543677642087227 -0.7412505960948513 0.5725281617692306 116 114 115 0.54 22 0 23 0 38 0 
726 -0.2839408688249573 -0.6837587982325751 0.6964554766893147 104 134 154 1.82 21 0 22 0 23 0 35 0 37 0 38 0 40 0 42 0 44 0 
727 -0.3076091358352284 -0.5652798647850634 0.613824506976967 103 108 114 0.73 22 0 23 0 36 0 38 0 40 0 42 0 44 0 
728 1.7081432024238201 -0.8153577998158458 -0.05470555747232786 103 81 72 0.76 22 0 23 0 38 0 
729 0.9280300467805995 -0.8390747836968631 0.019198053004445992 35 28 26 1.46 21 0 22 0 23 0 36 0 38 0 
730 0.35311278221396664 -0.36961454071105215 0.4590251540455901 51 38 32 0.42 36 0 37 0 38 0 
731 0.2428665586743883 -0.41763762568873547 0.42602526015739417 59 58 58 1.35 37 0 38 0 40 0 42 0 44 0 
732 1.0807076422746411 -0.7766022073446567 -0.049033193583946866 38 30 24 0.74 22 0 23 0 36 0 37 0 38 0 
733 1.6864123597100884 -0.7364984065302226 -0.11509534458753667 110 116 122 0.9 22 0 23 0 36 0 37 0 38 0 42 0 
734 -1.5425186137164728 -0.804760408779316 0.2876825462372805 19 41 62 1.72 22 0 23 0 35 0 37 0 38 0 40 0 
735 1.083512032605202 -0.7109263616021808 -0.07613094586398472 45 36 30 0.65 22 0 23 0 36 0 37 0 38 0 
736 1.022999457677762 -0.7092361359529915 -0.07370344303918763 43 36 30 0.58 22 0 23 0 36 0 37 0 38 0 
737 1.691655127582291 -0.6717861180743641 -0.14274254566497957 128 135 142 1.19 21 0 22 0 23 0 36 0 37 0 38 0 42 0 
738 1.0247604546303108 -0.6739636912100364 -0.08209385427694849 46 39 31 0.9 22 0 23 0 36 0 
739 0.3475672270279298 -0.6778295055425688 0.006047610188866459 20 14 11 1.14 22 0 23 0 36 0 37 0 38 0 40 0 44 0 45 0 
740 0.7632441525665119 -0.24739567796832618 0.35164418687291055 79 80 80 1.19 36 0 37 0 38 0 40 0 42 0 44 0 45 0 
741 1.0851501272776605 -0.6423010588786885 -0.09780230608773532 46 39 31 0.82 22 0 23 0 36 0 37 0 38 0 
742 1.0235706531071798 -0.6394881493778021 -0.09395315562589734 46 37 32 0.7 22 0 23 0 36 0 37 0 38 0 
743 -0.21745352945773588 -0.6359551841154362 0.06679912344999717 22 18 19 0.8 22 0 23 0 36 0 38 0 40 0 42 0 44 0 45 0 
744 1.1449590317037586 -0.5721879142888278 -0.11557708009534662 37 30 28 2.16 22 0 23 0 36 0 37 0 38 0 40 0 44 0 
745 0.8750614375432114 -0.5614973353225644 -0.06560186727222317 34 23 17 0.72 22 0 23 0 36 0 38 0 
746 1.7106898487373128 -0.5187100186456829 -0.14738144841608536 36 33 33 0.88 22 0 23 0 37 0 38 0 
747 1.8264073623335493 -0.49549411684587347 -0.13484773918568393 113 105 95 1.12 22 0 23 0 38 0 
748 1.6320319662169114 -0.5339357888623358 -0.19558437960347397 151 160 165 0.72 22 0 36 0 37 0 38 0 42 0 
749 -0.2950810824984703 -0.5419988536430329 0.05403415790748878 66 54 47 0.6 22 0 36 0 37 0 38 0 40 0 42 0 44 0 
750 0.3677236102487631 -0.5387110327527388 -0.03750247559058795 23 15 12 0.86 22 0 36 0 37 0 38 0 40 0 
751 0.3212365494875883 -0.5398995077532426 -0.03256186234033431 26 19 15 0.64 22 0 36 0 38 0 
752 -1.196929836494912 -0.6234319745508234 0.06684272522494217 100 120 135 0.75 22 0 23 0 35 0 37 0 38 0 40 0 42 0 44 0 
753 -0.5019007897933503 -0.56213477233499 0.016491745974109184 67 86 100 1.66 22 0 35 0 38 0 
754 -0.5898783292971721 -0.5826598844678961 0.0026648578436799797 128 143 156 0.77 21 0 22 0 23 0 35 0 36 0 37 0 38 0 40 0 42 0 44 0 45 0 
755 1.026950663040773 -0.5028211441359666 -0.14674763852993644 51 50 47 1.15 22 0 23 0 36 0 37 0 38 0 
756 0.34544203386260575 -0.49576300588284955 -0.05299165004965334 21 15 12 0.73 22 0 23 0 36 0 37 0 38 0 40 0 44 0 45 0 
757 -1.0193778555431086 -0.5563709191158832 0.03879903754893599 105 111 124 1.16 22 0 23 0 36 0 37 0 38 0 40 0 42 0 44 0 45 0 
758 -1.136548758516318 -0.5613674142339908 0.038883738401765955 137 155 168 0.85 22 0 23 0 35 0 36 0 37 0 38 0 40 0 44 0 45 0 
759 -1.1965116458825555 -0.5541086902422743 0.046609141799328846 114 135 149 0.79 22 0 23 0 35 0 37 0 38 0 40 0 42 0 
760 -0.3396420865585944 -0.4548795632196936 0.033510980773045373 84 77 76 0.83 22 0 23 0 35 0 36 0 37 0 38 0 40 0 42 0 44 0 45 0 
761 1.7169944509762574 -0.4238118986048775 -0.18430559276499303 56 55 54 0.97 21 0 22 0 23 0 36 0 37 0 38 0 
762 -1.0724112608234704 -0.4881780273042447 0.012655104955404006 101 106 116 1.04 22 0 23 0 35 0 36 0 37 0 38 0 
763 -1.1417675944383763 -0.48430637554354034 0.020335965210026785 134 150 164 3.08 22 0 23 0 35 0 36 0 38 0 40 0 44 0 
764 -0.09556601339189796 -0.463014479300688 -0.08322816664085819 41 34 30 2.52 22 0 35 0 40 0 
765 0.4132298888221096 -0.40301436561508297 -0.08324808562809782 22 17 14 0.7 22 0 23 0 36 0 37 0 38 0 
766 -0.4712052395301827 -0.4452759250787934 -0.05206096056423659 99 109 123 1.38 22 0 23 0 35 0 36 0 37 0 38 0 40 0 42 0 44 0 45 0 
767 0.021779559155938932 -0.4298151299144725 -0.09959995126508037 71 73 74 1.06 23 0 35 0 36 0 37 0 40 0 42 0 
768 0.13519998827778218 -0.3867330534693889 -0.06399843957114659 45 35 29 0.92 22 0 23 0 35 0 36 0 37 0 38 0 42 0 
769 0.377573868891229 -0.38036400218331856 -0.08920033112167902 31 25 21 0.97 22 0 23 0 36 0 37 0 38 0 40 0 
770 -0.5582252722568798 -0.44163554986356957 -0.0790805833956223 71 99 112 0.22 22 0 35 0 38 0 
771 1.1682393753270706 -0.35683356508638414 -0.1396334345684802 59 52 45 2.95 22 0 23 0 36 0 37 0 38 0 40 0 44 0 
772 -1.0733497867787614 -0.42812601224890506 -0.022693492004721483 132 151 167 1.01 22 0 23 0 35 0 36 0 37 0 38 0 40 0 42 0 44 0 45 0 
773 0.413365321797571 -0.3767749001739969 -0.10606331063843899 32 26 20 1.12 22 0 23 0 36 0 38 0 40 0 44 0 
774 -0.7859999056560754 -0.39437470552559206 -0.011748809024683338 133 125 119 0.95 22 0 35 0 38 0 40 0 42 0 
775 -0.6615306963117139 -0.38069550892213316 -0.014616137088679482 71 74 75 0.87 22 0 35 0 38 0 40 0 
776 -0.6447561427029331 -0.4122913433710757 -0.07129227988978604 72 87 92 0.44 22 0 23 0 36 0 
777 0.3409197044146969 -0.3283161833053401 -0.1043745424848671 23 20 20 1.07 22 0 23 0 35 0 36 0 37 0 38 0 40 0 44 0 45 0 
778 -1.1336411536312079 -0.35965539614189607 -0.04014941863017252 162 174 184 0.68 22 0 23 0 35 0 36 0 37 0 38 0 40 0 42 0 44 0 45 0 
779 -0.42795103476910046 -0.3061671594747953 -0.05241784226503721 35 29 25 0.89 22 0 23 0 35 0 36 0 37 0 38 0 40 0 42 0 44 0 45 0 
780 -0.9831506175254536 -0.30902375261167264 -0.02437102582436057 103 90 88 1.94 22 0 23 0 35 0 37 0 38 0 
781 0.4284071076849013 -0.2715249290912909 -0.1260100833230109 48 40 37 0.82 22 0 23 0 38 0 40 0 
782 2.333357807853992 -0.25170109483654524 -0.2928130560992801 106 94 88 0.45 22 0 23 0 36 0 38 0 
783 1.8518127418985828 -0.227510401323259 -0.24641231078377057 87 71 67 1.04 22 0 23 0 36 0 
784 -0.4527385958789296 -0.22447520649837355 -0.07995259238958352 38 35 37 0.81 22 0 23 0 35 0 36 0 37 0 38 0 40 0 42 0 44 0 
785 -0.20976695294057035 -0.19274205778693831 -0.06126756360961205 47 38 37 1.12 22 0 23 0 38 0 
786 -0.4809792293402706 -0.19227708289631035 -0.08598684044916927 73 66 65 1.27 22 0 23 0 35 0 36 0 37 0 38 0 40 0 42 0 
787 0.40727392596363127 -0.19005890821108226 -0.15974310660534408 57 43 37 1.54 22 0 23 0 36 0 37 0 38 0 40 0 45 0 
788 0.34862081101886494 -0.1858745100588807 -0.15261389639751277 59 46 38 1.4 22 0 23 0 35 0 36 0 37 0 38 0 40 0 44 0 45 0 
789 -0.3345926422035411 -0.1628382192610454 -0.06073618119752289 86 80 78 1.12 22 0 23 0 35 0 36 0 37 0 38 0 40 0 42 0 44 0 
790 -1.4605784217951279 -0.17474037602446135 -0.020772010412909436 155 174 175 1.05 22 0 23 0 38 0 
791 0.13443547886973575 -0.1756048560132263 -0.13813237782699117 69 55 48 0.92 21 0 22 0 23 0 35 0 36 0 37 0 38 0 42 0 45 0 
792 -0.3358800355889746 -0.14210202261050225 -0.07053430380573023 85 78 76 0.58 22 0 37 0 38 0 42 0 
793 -0.5716319026972895 -0.15763966182668276 -0.10487193717004695 89 85 84 1.13 22 0 23 0 35 0 36 0 37 0 38 0 40 0 42 0 44 0 
794 -0.45891063225875683 -0.13826487197125545 -0.10950327819997674 68 58 57 0.67 22 0 23 0 35 0 36 0 37 0 38 0 40 0 42 0 44 0 
795 -1.0284087355011686 -0.13545284211079708 -0.06940964447826237 134 122 112 0.45 22 0 23 0 35 0 36 0 37 0 38 0 40 0 42 0 44 0 
796 0.962542635473402 -0.15838778008731944 -0.21307833908726204 34 23 19 1.01 21 0 22 0 23 0 35 0 36 0 37 0 38 0 42 0 
797 -1.4197558592396224 -0.11848736844612129 -0.05061193862699942 134 128 123 0.83 22 0 38 0 40 0 
798 -1.2253622830580648 -0.11533380502596968 -0.061704557662511816 143 137 136 0.75 22 0 23 0 37 0 38 0 40 0 42 0 44 0 45 0 
799 0.23376447640314188 0.13742206496332715 0.26825347441581227 97 101 104 1.12 36 0 37 0 38 0 42 0 
800 0.3728419806029546 -0.13445139469874368 -0.16462968163370895 71 49 38 0.86 22 0 23 0 35 0 36 0 37 0 
801 -0.5294025709438581 -0.12235751450759472 -0.11751354150658122 90 80 80 1.27 22 0 35 0 36 0 37 0 38 0 40 0 44 0 
802 -0.2676963500218892 -0.0871377110643794 -0.09179115005044447 94 88 82 1.03 22 0 23 0 37 0 38 0 40 0 
803 -1.2882233196629744 -0.08446975273486212 -0.07445573150028872 93 82 83 1.06 22 0 23 0 37 0 38 0 40 0 42 0 44 0 45 0 
804 0.4184982093600063 -0.1034396941045046 -0.18243837656310524 30 21 19 0.64 22 0 23 0 36 0 
805 1.0927677303614614 -0.14397693571989373 -0.2894623068028819 63 65 65 2.17 22 0 23 0 35 0 36 0 38 0 
806 -0.5824379810080722 -0.10903584814752137 -0.15992980006548851 18 14 13 1.33 21 0 22 0 37 0 38 0 40 0 
807 1.7157893681794674 -0.10660325169324184 -0.28213301240946265 57 54 50 1.55 22 0 23 0 38 0 
808 -0.20970416500135058 -0.05078234832662552 -0.1096483147170676 77 69 68 0.96 22 0 23 0 38 0 40 0 
809 0.3437100810586432 -0.07398914407886285 -0.1842444090457006 47 37 34 0.57 22 0 23 0 38 0 
810 0.37950292927465445 -0.0627235469153973 -0.19289661569692707 43 31 26 0.86 22 0 35 0 37 0 38 0 
811 -0.9786370141788088 -0.040484978914060304 -0.12647921771924608 109 101 103 0.86 22 0 38 0 42 0 
812 2.2678198764352953 -0.09161649815874726 -0.34273044029029653 61 58 56 1.03 21 0 22 0 23 0 36 0 38 0 
813 -0.21621400229638155 -0.016977622686465247 -0.1336664989753773 44 39 39 0.15 22 0 23 0 36 0 
814 0.3289501545433552 -0.039704183143914884 -0.1978746922270339 65 51 43 0.87 22 0 37 0 38 0 
815 -0.33012583200247536 0.0016430125414660345 -0.10654227260632865 68 70 71 1.07 22 0 23 0 36 0 
816 0.4198217099677009 -0.044745763930591834 -0.2098221680313257 44 33 30 1.34 22 0 23 0 36 0 37 0 38 0 40 0 45 0 
817 0.3631097435723277 0.23272203092305666 0.2742099881691562 84 75 68 0.45 36 0 38 0 40 0 
818 -1.1294117362058456 -0.004073203724608263 -0.1567384939448564 119 134 148 0.94 22 0 23 0 35 0 37 0 38 0 40 0 42 0 
819 1.033923137881668 -0.061498478841764403 -0.3010483966878662 103 108 111 0.68 22 0 23 0 36 0 38 0 
820 -0.33529998158367313 0.02387743099660108 -0.12194722859775775 53 51 52 0.5 22 0 23 0 38 0 
821 -0.245638957937101 0.027740234571071633 -0.13269160919058798 88 80 75 1.14 22 0 23 0 36 0 37 0 38 0 42 0 
822 0.18193818994858352 0.00069068529963617 -0.19899220509353 49 41 38 2.04 22 0 23 0 35 0 36 0 37 0 38 0 42 0 
823 0.03001486687249294 -0.014138412431578418 -0.23922750658418312 80 89 93 0.93 22 0 23 0 35 0 36 0 37 0 42 0 
824 -1.0191744966001548 0.04322278087401085 -0.13607900182553756 69 99 113 0.98 22 0 23 0 36 0 
825 1.7509401733979086 -0.03578052279628635 -0.33473705436903944 137 124 109 0.81 22 0 23 0 36 0 38 0 
826 0.4221334210263147 0.025613201677325826 -0.22718324062122963 46 33 30 1.03 22 0 23 0 36 0 37 0 38 0 
827 -1.1279005923591374 0.06294428182353917 -0.18026626222498365 132 148 158 0.86 22 0 23 0 35 0 37 0 38 0 40 0 42 0 44 0 45 0 
828 -0.9832215103826729 0.07762524741312762 -0.15624050129184308 90 83 86 1.69 22 0 23 0 38 0 
829 0.3848655767654759 0.26433441277193653 0.22803132603490628 149 134 120 0.41 35 0 36 0 37 0 
830 -0.2851332493579656 0.08466162924371795 -0.15035828641847815 78 68 64 1.51 22 0 23 0 36 0 37 0 40 0 42 0 45 0 
831 1.8642741924889465 -0.00531075003453391 -0.332642033626225 90 72 66 3.52 22 0 23 0 38 0 
832 0.30016124919285336 0.05271461967233862 -0.22043345741765008 37 36 34 1.15 22 0 23 0 35 0 36 0 37 0 38 0 
833 -0.3669060458133012 0.07837208669699083 -0.1772325093174988 37 35 37 1.09 22 0 23 0 38 0 42 0 
834 -0.20575074749745792 0.09420985623511835 -0.16102904904095505 66 56 54 0.66 22 0 38 0 40 0 45 0 
835 0.985478363293768 0.01697833177617043 -0.3067591819441843 87 82 73 1.47 21 0 22 0 23 0 35 0 36 0 37 0 38 0 
836 0.2530333623863752 0.06502339176733662 -0.22546858421217575 64 52 47 1.05 22 0 23 0 35 0 36 0 37 0 38 0 
837 -1.1267997525370796 0.09784888571191658 -0.19050392252041282 99 120 131 0.57 22 0 23 0 37 0 38 0 42 0 
838 -0.34432236676556793 0.10501541366614241 -0.16032320871450045 23 24 28 0.4 22 0 23 0 36 0 
839 -0.27865988407252196 0.11601273418869867 -0.16560485228478505 55 46 46 1.3 22 0 23 0 35 0 36 0 38 0 40 0 42 0 44 0 45 0 
840 0.3803377277891774 0.08587739233501596 -0.2474492049742677 70 56 50 0.47 22 0 38 0 40 0 
841 -1.4546509444500888 0.18083809063099882 -0.12936363239000115 76 67 67 1.5 22 0 38 0 42 0 
842 0.4229580764978913 0.09136660565762575 -0.24744615644341594 48 36 32 0.77 22 0 23 0 36 0 
843 -0.2811327395396934 0.14225537496835824 -0.1701699771874472 33 27 27 0.84 22 0 23 0 36 0 38 0 40 0 42 0 45 0 
844 0.7820543335504837 0.07935070584474553 -0.2793058716553687 94 85 73 1.53 22 0 23 0 36 0 
845 0.9206652160867023 0.073255297808954 -0.2950111504678048 75 65 59 3.18 22 0 23 0 35 0 38 0 42 0 
846 0.8808396011815782 0.08188910720556894 -0.2802768946924711 50 46 43 1.09 22 0 23 0 36 0 37 0 38 0 
847 0.4246859108787294 0.10470450994488543 -0.25875135209354416 37 24 22 0.46 22 0 37 0 38 0 40 0 
848 0.38110334894307796 0.11270917642186823 -0.24727124648870324 95 86 78 0.93 22 0 23 0 36 0 
849 0.15680181285303654 0.12408854979282877 -0.23423561209178 62 48 45 1.66 22 0 23 0 35 0 36 0 37 0 
850 -0.36079423638320784 0.16413891507468303 -0.19793046872518005 45 46 50 0.76 22 0 23 0 36 0 
851 -0.4554689468453297 0.15250321802027453 -0.23283082422335355 66 70 80 1.39 22 0 36 0 37 0 38 0 
852 0.4234575045179246 0.13486595491997214 -0.2616734577623402 52 38 35 0.79 22 0 23 0 36 0 37 0 38 0 
853 0.34835752534312925 0.14676275832209257 -0.24924558874794644 75 66 59 1.34 22 0 23 0 35 0 38 0 
854 0.03026057168968649 0.14951661642691913 -0.30975174840671504 101 107 114 1.48 22 0 23 0 35 0 36 0 37 0 40 0 42 0 44 0 45 0 
855 1.6942148278843352 0.0826441942835027 -0.40740395691031117 78 81 84 0.87 22 0 23 0 36 0 38 0 42 0 
856 2.4006907729142792 0.08654301862881525 -0.41439148895961375 79 85 78 0.29 22 0 36 0 38 0 
857 0.38253044699418076 0.199842461562644 -0.27901230930965315 87 73 67 1.32 22 0 23 0 35 0 36 0 37 0 38 0 40 0 
858 -0.9882102257861909 0.2896125880998394 -0.2505216160956525 83 77 81 2.87 22 0 23 0 35 0 36 0 37 0 38 0 40 0 42 0 44 0 45 0 
859 2.5216870148777097 0.10455262960849737 -0.4327086770961349 116 86 69 0.38 22 0 36 0 38 0 
860 0.9269071454274325 0.18163497103878257 -0.3264314060926101 106 87 75 0.46 22 0 23 0 36 0 38 0 
861 -1.1970523720872672 0.3260827429258692 -0.19961001262994627 105 105 103 1.17 22 0 23 0 37 0 38 0 40 0 42 0 
862 1.7243958456037765 0.1529402050526653 -0.3755141254482599 31 28 27 0.58 22 0 23 0 36 0 38 0 
863 -0.6195361932952573 0.2944998088349149 -0.258029192031354 56 56 55 1.31 22 0 38 0 40 0 
864 -0.6465759092402443 0.2856123447893191 -0.284991417071334 43 41 41 3.21 22 0 23 0 36 0 38 0 
865 1.7008431787818772 0.141194881624109 -0.4466962053292898 60 70 73 1.55 22 0 23 0 36 0 38 0 42 0 
866 0.3854204144109179 0.41575035365190416 0.18764179428727523 71 49 41 0.27 36 0 37 0 38 0 
867 -1.1567349955024124 0.3447903856504827 -0.2303971723108017 26 21 21 2.03 22 0 23 0 35 0 38 0 
868 0.9687304885672965 0.21001482292602824 -0.3517360930213197 54 38 37 1.5 22 0 23 0 38 0 
869 0.19213173496296734 0.2696970023236282 -0.2927687614608332 45 42 44 1.75 22 0 23 0 35 0 36 0 37 0 38 0 42 0 
870 -0.6186276579971104 0.31805981894282265 -0.2735227003174051 23 27 33 1.26 22 0 38 0 42 0 
871 0.9498786719855811 0.2647681775430187 -0.34429147686590234 77 62 52 1.06 22 0 23 0 35 0 36 0 37 0 
872 -0.2985038783196492 0.3749419376754123 -0.22218438904140492 39 31 25 0.59 22 0 36 0 38 0 
873 0.3650519389062848 0.35577111026663943 -0.3142702094386697 83 72 65 0.85 23 0 36 0 38 0 
874 -0.3217951444895638 0.5886147979709571 0.14194867966542657 117 126 131 0.46 35 0 36 0 37 0 38 0 
875 0.23771817475556756 -0.45633024627329344 0.3759108760167893 34 25 22 1.11 35 0 36 0 37 0 38 0 
876 0.3828210061791506 -0.8126383638326965 0.06040490310195268 37 31 26 1.67 22 0 23 0 36 0 38 0 
877 1.1519105463208912 -0.7903452012017841 -0.054543782782749406 21 16 12 0.62 23 0 36 0 37 0 38 0 40 0 44 0 
878 0.2568522347062408 -0.3625051245035994 0.3833202297557914 71 78 84 0.18 36 0 37 0 38 0 
879 0.5049336828581622 -0.7285676261777807 0.013880258000905199 34 27 24 2.43 23 0 38 0 40 0 44 0 
880 1.1500561321385754 -0.7170451581235101 -0.08045191080149494 34 26 21 0.66 23 0 36 0 37 0 38 0 40 0 44 0 
881 -1.0258535464138834 -0.795397707499208 0.15593593781842463 67 80 91 1.21 22 0 23 0 35 0 36 0 37 0 38 0 40 0 42 0 44 0 
882 0.2527272947447195 -0.29922330575395323 0.3686196609779355 52 52 57 0.32 36 0 37 0 38 0 42 0 
883 0.4277203267831449 -0.6813440686834109 -0.024226233545752818 33 25 20 0.41 23 0 36 0 37 0 38 0 40 0 
884 -0.5822488908814949 -0.7236187554521359 0.09311279861761923 80 61 58 1.22 23 0 35 0 36 0 37 0 
885 -1.1230478800433084 -0.7565338876536212 0.14416131914607777 95 73 67 1.68 23 0 35 0 36 0 37 0 38 0 40 0 42 0 44 0 45 0 
886 -0.46141154132109574 -0.7048719860027217 0.08266861810887982 17 12 14 3.34 23 0 35 0 36 0 37 0 38 0 40 0 42 0 
887 1.149481324709773 -0.6484369544718732 -0.10273341664016289 36 27 22 0.8 23 0 36 0 37 0 38 0 40 0 44 0 
888 0.2540682825091532 -0.2501501455628125 0.3506901161297873 37 36 38 0.56 36 0 37 0 38 0 
889 0.42709378914547713 -0.6093383052565854 -0.04482037204936695 28 23 18 0.21 23 0 36 0 37 0 38 0 40 0 
890 -0.929727206666261 -0.6463802288140673 0.09548733165902679 105 96 88 0.7 23 0 35 0 36 0 37 0 38 0 40 0 42 0 45 0 
891 -0.8743301717823153 -0.6142722378024054 0.07343434770494994 114 111 106 0.78 23 0 35 0 36 0 37 0 38 0 40 0 42 0 
