# 3D point list with one line of data per point:
#   POINT3D_ID, X, Y, Z, R, G, B, ERROR, TRACK[] as (IMAGE_ID, POINT2D_IDX)
# Number of points: 438, mean track length: 4.48
654 0.6687136537744465 0.3624906730921687 0.006809939998692061 187 190 189 0.47 58 0 63 0 64 0 65 0 67 0 68 0 
655 -0.7268233236789279 0.43659056112352174 0.0010132710617778429 100 99 109 0.59 51 0 58 0 59 0 63 0 64 0 
656 0.6934423584066818 0.3609618114529079 0.00325999486335804 139 134 131 0.73 58 0 59 0 63 0 64 0 65 0 67 0 68 0 
657 -0.21298604408481836 -0.17977620479492884 -0.007491430185902814 135 133 137 0.87 58 0 63 0 64 0 65 0 
658 0.2676559745762397 0.37722207938169555 0.007367442833557503 104 100 110 0.57 51 0 58 0 59 0 63 0 65 0 67 0 68 0 
659 0.5241308554053525 0.36446800645067673 0.006712118400982181 151 139 137 0.69 58 0 59 0 63 0 64 0 65 0 68 0 
660 0.3660211627758876 0.37084942846242114 0.002382198499702559 152 141 140 0.43 58 0 63 0 64 0 65 0 
661 -1.056334718268143 -0.12234259690476607 -0.01913665168714629 80 82 89 0.6 58 0 59 0 64 0 65 0 
662 -0.3789585274782693 -0.16031037776107987 -0.007182938682725126 119 108 110 0.87 58 0 59 0 63 0 
663 -0.14095727519808576 -0.1730997557684818 -0.008141778702738467 108 102 100 0.81 58 0 59 0 63 0 64 0 68 0 
664 0.2920686659143099 -0.19673402528661205 -0.006948218058385747 71 60 65 0.58 51 0 58 0 59 0 63 0 64 0 65 0 67 0 
665 0.4818776308169146 0.36416811843650715 0.005979850386838015 165 156 154 1.19 58 0 59 0 63 0 64 0 65 0 67 0 68 0 
666 -0.49664104624293626 0.41541671245444695 -0.003997678733685506 108 95 103 0.24 58 0 64 0 65 0 68 0 
667 0.31382113740365924 -0.18525925718302205 -0.004304484090017269 125 122 120 0.58 58 0 59 0 63 0 64 0 65 0 67 0 
668 -0.10975831049098372 -0.16989509197639108 -0.008022841533830816 117 102 95 0.67 58 0 59 0 64 0 
669 0.08149354043064805 0.377027194952303 0.009222616720796273 141 136 136 0.75 58 0 59 0 63 0 64 0 65 0 
670 -0.1338513659242011 -0.16069044629433726 -0.005278441148020896 134 123 120 0.7 51 0 58 0 59 0 63 0 64 0 65 0 67 0 
671 -1.305849944745244 -0.10289848842779564 -0.006766649970884053 118 108 109 0.61 58 0 59 0 63 0 64 0 65 0 
672 -0.9974436059087938 -0.1125408069603075 -0.03385667731691666 52 41 50 0.69 58 0 59 0 64 0 68 0 
673 -0.8281769943065544 -0.12375747914919921 -0.030998316500074008 48 37 42 0.6 51 0 58 0 59 0 63 0 64 0 65 0 67 0 68 0 
674 -0.9014054294664852 -0.12120532394071981 -0.028827727139061343 47 33 37 0.96 51 0 58 0 59 0 63 0 64 0 65 0 67 0 68 0 
675 -0.204111268574087 -0.14753228281833786 -0.026867477192997757 132 127 133 0.95 58 0 59 0 63 0 
676 -1.0598150197536578 -0.10721598029535007 -0.023968655363105107 75 75 77 0.69 51 0 58 0 59 0 63 0 64 0 
677 -0.863670047963106 -0.11567395472593517 -0.03296306079692024 47 34 39 0.46 51 0 58 0 59 0 63 0 64 0 65 0 
678 0.40197110402528025 0.35850951390569846 -0.0020164667964777117 142 129 127 0.99 58 0 59 0 63 0 64 0 65 0 67 0 68 0 
679 -0.1867722411878604 -0.1479703018740972 -0.004240161116189967 149 176 205 1.18 58 0 59 0 63 0 64 0 65 0 
680 -0.026246792228566518 -0.1511487838342438 -0.027260627401716198 47 33 37 0.46 58 0 59 0 63 0 64 0 65 0 67 0 68 0 
681 0.4478512123016414 -0.18080596140722666 -0.0016255797952180462 100 91 93 0.51 51 0 58 0 59 0 63 0 64 0 65 0 
682 0.13963492586415716 -0.15676350968556862 -0.024435477657979376 48 33 37 0.85 51 0 58 0 59 0 63 0 64 0 65 0 67 0 68 0 
683 0.31592987774696835 -0.16996251862671918 -0.004560411001955256 142 132 129 0.86 58 0 59 0 63 0 64 0 65 0 67 0 
684 -0.5477421216019125 0.40423311043698346 -0.00014195371599390327 154 149 148 0.67 58 0 64 0 65 0 68 0 
685 -0.20636434144054094 -0.13994626072050403 -0.0037107121408694876 120 121 130 1.55 58 0 63 0 64 0 65 0 67 0 
686 0.2345273903933669 -0.1581489046567765 -0.024704171250179874 53 40 48 0.25 58 0 59 0 63 0 
687 0.3441764488606949 -0.16684422506929786 -0.00488147169526898 119 110 104 0.25 58 0 59 0 63 0 
688 -1.1028382777206382 -0.09364781806735134 -0.019878361682915013 71 62 74 1.07 58 0 59 0 63 0 65 0 
689 -0.5405834890096638 -0.12302029391600033 -0.00899267288267791 58 54 61 0.59 51 0 58 0 59 0 63 0 64 0 65 0 68 0 
690 -0.6370262487104492 -0.11291671861943264 -0.004769649171337598 135 119 110 0.42 58 0 59 0 65 0 
691 -0.08667309702594539 -0.14267429647829755 -0.003909917574983934 74 55 56 0.47 58 0 59 0 63 0 64 0 65 0 
692 -0.6022870299890926 -0.11569022413908986 -0.007683410911924149 107 98 97 0.32 58 0 59 0 65 0 
693 -0.2567885487061182 -0.13747838276810043 -0.006534677596507832 125 111 112 0.23 58 0 59 0 63 0 65 0 
694 0.5388786426306871 0.3450455752487694 0.00595544023298622 93 101 114 0.44 51 0 58 0 59 0 63 0 64 0 65 0 67 0 68 0 
695 0.05078208677716267 0.3628679609159747 0.0032022341203681304 155 155 160 0.36 58 0 63 0 64 0 65 0 
696 0.3658062778660689 -0.15821050785632373 -0.0017395359713034964 144 138 136 0.52 58 0 59 0 63 0 64 0 65 0 
697 -0.5005779877238753 -0.11466692984403182 -0.010727674099510365 127 115 117 1.04 58 0 59 0 63 0 64 0 65 0 
698 0.42628390187679654 -0.162525017668751 -0.0007307002901908444 110 111 117 0.61 58 0 59 0 63 0 64 0 65 0 
699 -1.0264072453114212 -0.08014250854873828 -0.028126444568434827 52 38 41 0.72 51 0 58 0 59 0 63 0 64 0 65 0 67 0 68 0 
700 -0.8664641114995839 -0.08632747168369087 -0.032274472520248176 53 46 50 0.85 51 0 58 0 59 0 63 0 64 0 65 0 67 0 68 0 
701 0.5038144059216665 -0.162971937266581 0.0026925014378382794 123 117 119 1.64 58 0 59 0 64 0 65 0 
702 0.13107796465244004 0.35633615382120926 0.010147130330396825 158 144 140 0.56 58 0 59 0 63 0 64 0 
703 -1.2631383837998738 0.4482143923241025 -0.00652440136404997 73 82 100 0.58 51 0 58 0 59 0 63 0 64 0 65 0 67 0 
704 0.623556563353239 0.3316138287370937 0.005362005391333247 147 138 135 0.77 58 0 59 0 63 0 64 0 65 0 67 0 68 0 
705 0.6926186281437456 0.32845563754787893 0.005980789266536668 134 125 124 0.5 58 0 59 0 63 0 64 0 65 0 67 0 68 0 
706 -0.24612377152581977 -0.12134288685726474 -0.006670160871562247 114 103 104 0.89 58 0 59 0 64 0 
707 -0.19656975471819327 -0.1269365806273633 0.005873112589906748 143 139 145 0.62 58 0 59 0 63 0 
708 -0.6737343977270436 -0.0942947510290002 -0.009306093405847093 57 38 40 0.19 58 0 59 0 63 0 64 0 65 0 
709 -0.6029225594042769 -0.10036075173332737 -0.005854913934694839 109 104 105 0.6 58 0 59 0 63 0 64 0 65 0 
710 -0.3992995582031065 0.3819278183852837 -0.0004500940405400833 167 161 159 0.64 51 0 58 0 59 0 63 0 64 0 65 0 67 0 68 0 
711 -0.1125379987175612 0.36190165870386753 0.002665700382052716 108 110 120 0.77 58 0 59 0 63 0 64 0 65 0 67 0 
712 0.4255441179054298 0.33845276909777017 0.0028985887505423857 142 131 131 0.11 58 0 59 0 65 0 
713 -0.3226344460569134 -0.10924491908997336 -0.003781682107071971 126 118 123 0.75 58 0 59 0 63 0 65 0 
714 0.3157410393536948 -0.14118839907120145 -0.0039274326384424185 150 143 136 0.47 58 0 59 0 63 0 64 0 65 0 
715 -0.6242276000820195 -0.09352450760806053 -0.012880531139763729 133 134 130 1.12 58 0 59 0 63 0 
716 -0.8544697414986366 0.40418618062567574 0.006429520465338623 174 171 172 0.57 58 0 59 0 63 0 
717 -0.6638724328877159 0.39386841491981156 -0.0018339536426676961 95 92 102 0.52 51 0 58 0 59 0 63 0 64 0 65 0 
718 -0.4847278295187415 0.3816172289601379 -0.0014332781032029285 163 152 147 0.8 58 0 59 0 63 0 64 0 65 0 68 0 
719 -0.44443063887495016 0.3809625411624205 -0.0046101690553070895 191 181 178 0.74 58 0 59 0 64 0 65 0 68 0 
720 -0.3355528125178633 0.3716881566075248 0.005795150528188575 168 156 154 1.07 58 0 59 0 63 0 67 0 
721 0.4854801964683595 -0.14802858461445778 -0.00414706087602168 111 103 104 1.12 58 0 59 0 63 0 64 0 
722 0.26718562443205696 -0.1271065784813451 -0.022515368696166993 48 35 38 0.56 58 0 59 0 63 0 64 0 65 0 
723 -0.05954790932261078 -0.11481925366399953 -0.021348880375187118 48 33 37 0.44 58 0 59 0 63 0 64 0 65 0 
724 0.10507668388996905 -0.1214369117707883 -0.02690032791999397 55 47 51 0.76 51 0 58 0 59 0 63 0 64 0 65 0 67 0 68 0 
725 0.2235168686156681 0.3423960710663983 0.0021043901433395185 174 191 194 1.0 58 0 59 0 64 0 65 0 67 0 68 0 
726 0.26781041391306704 0.3407597829655063 0.0026155116561128455 134 139 144 0.2 58 0 64 0 65 0 
727 0.572832678457253 0.32563948076955557 0.006382125162016861 81 88 100 0.66 51 0 58 0 59 0 63 0 64 0 65 0 67 0 68 0 
728 -1.3563825991989165 0.4426043216538447 -0.0058152996715648 119 115 118 0.46 51 0 58 0 59 0 63 0 
729 -1.1816102497303806 -0.04647742860098486 -0.016143837823553664 129 109 106 0.18 58 0 59 0 63 0 
730 -0.41309104399933383 -0.08913498530590697 -0.008006290517985848 134 129 134 0.42 58 0 59 0 63 0 65 0 68 0 
731 0.06347559666629832 0.34946832333970784 -0.002761011640116884 138 132 128 0.64 58 0 59 0 63 0 64 0 65 0 67 0 68 0 
732 -0.6342236917407229 0.3836315838362387 -0.003158681338586433 159 157 156 0.62 58 0 59 0 63 0 64 0 
733 -0.47439395568707565 -0.08314636520509178 -0.006108782484334885 130 123 124 0.73 51 0 58 0 59 0 63 0 64 0 65 0 
734 -0.20133226343177535 -0.09571114358114002 -0.005355003290381299 135 131 132 0.48 58 0 63 0 64 0 65 0 
735 0.42567574732625046 -0.12911610933067408 -0.0026760875982543286 142 142 144 1.09 58 0 59 0 63 0 64 0 65 0 
736 -1.0518354796558795 -0.052020785657068636 -0.01140884145470622 49 56 65 0.48 51 0 58 0 59 0 63 0 64 0 65 0 67 0 68 0 
737 0.01047947674701466 0.3435736306051436 0.001394430563694149 113 113 122 0.44 51 0 58 0 59 0 63 0 64 0 65 0 67 0 68 0 
738 0.5223591126067926 0.3270822708383628 -0.017357035454733216 160 156 156 0.62 58 0 59 0 64 0 
739 -0.23804302805377697 0.3535957605561196 0.0007757619359332057 108 113 123 0.49 51 0 58 0 59 0 63 0 64 0 65 0 67 0 68 0 
740 -0.018337248098915016 0.34339982316672285 -0.0008083731440458042 127 129 137 1.21 58 0 63 0 64 0 65 0 68 0 
741 0.6389507011713709 0.304992593387668 0.007805041965350368 99 98 108 1.18 51 0 58 0 59 0 63 0 64 0 65 0 67 0 68 0 
742 -0.38684697552203284 0.3576940767342754 0.0022156292102828434 133 143 148 0.11 58 0 59 0 63 0 65 0 
743 0.3619710554336184 -0.11359164566374652 -0.012848562401820418 158 155 159 0.81 58 0 59 0 63 0 64 0 65 0 
744 0.38514041762747997 -0.11774345208208487 -0.0033152331672277047 146 141 141 0.34 58 0 63 0 64 0 65 0 
745 -0.673013953928358 -0.06626123018179625 -0.00924323183767961 92 84 84 0.79 58 0 59 0 63 0 64 0 65 0 67 0 68 0 
746 -0.15602491460400203 -0.09605373584453825 0.013844974967656576 128 134 137 1.23 51 0 58 0 59 0 63 0 64 0 65 0 67 0 68 0 
747 0.5103380581385861 -0.1254385355116674 -0.0002705747796403202 128 116 116 0.41 58 0 59 0 63 0 64 0 
748 -0.3668817915443159 -0.07617904988745094 -0.006263720925307803 110 104 101 0.76 51 0 58 0 59 0 63 0 64 0 65 0 67 0 68 0 
749 -0.31493628835199283 -0.07987148332693494 -0.007282031903614428 126 119 122 0.49 58 0 59 0 63 0 65 0 67 0 
750 0.45022541751492207 -0.11842573758080571 -0.00011287066028065063 107 99 97 0.39 58 0 59 0 63 0 64 0 65 0 
751 -0.4931993388436735 -0.07478372942883721 0.005626326654778913 142 133 132 0.84 58 0 59 0 63 0 
752 -0.08383812091894194 -0.08660779319589607 -0.005232503359313467 45 43 47 0.3 58 0 59 0 63 0 64 0 65 0 67 0 
753 -0.26535669275131313 -0.0804811308520425 -0.00784844684841235 164 160 161 1.01 58 0 59 0 63 0 64 0 65 0 67 0 
754 -1.0188640731529088 0.39186044208245613 -0.001545282617655852 91 89 97 0.43 58 0 59 0 63 0 64 0 65 0 
755 0.5644321368975742 0.30429918962052444 -8.336882780834998e-05 168 166 165 0.61 58 0 63 0 64 0 65 0 
756 0.5847378621357333 0.3042053082370391 -0.0028299221513703454 171 165 165 1.76 58 0 59 0 63 0 64 0 65 0 67 0 
757 0.09258954192891822 -0.08954766025669247 -0.01095030327591573 50 45 52 0.88 58 0 59 0 63 0 64 0 65 0 68 0 
758 -0.8934406379255333 0.3777580975883084 -0.005850202591717091 167 173 174 0.61 51 0 58 0 59 0 63 0 65 0 
759 -0.22325500654730435 -0.07259084782014108 -0.0034125482326696766 127 111 112 0.72 51 0 58 0 59 0 63 0 64 0 65 0 67 0 
760 0.3200617025596453 -0.09904909034323561 -0.0006453592626658455 158 152 147 0.74 58 0 59 0 63 0 64 0 65 0 67 0 
761 0.47190949066312715 -0.10584712659047418 -6.14699647321082e-05 137 130 129 0.43 58 0 59 0 63 0 64 0 65 0 
762 0.24804598158666802 0.3115222619562891 -0.00014905863333081193 174 181 184 0.31 58 0 63 0 65 0 
763 -0.23220591497556953 0.33028316222770887 0.000533575240145634 128 110 109 0.63 58 0 63 0 64 0 68 0 
764 0.03389737666983006 0.31850417410298476 0.0019240859248559339 157 151 149 0.28 58 0 59 0 63 0 65 0 67 0 
765 0.5476312720640886 -0.10874797682599519 0.0006010595328527213 130 120 118 0.31 58 0 59 0 63 0 64 0 
766 -1.0377548689957308 -0.024569520187027405 -0.010799882710999853 112 102 100 0.47 51 0 58 0 59 0 63 0 
767 -1.0662527708543255 -0.024764143576229636 -0.01012866680877167 116 115 112 0.89 51 0 58 0 59 0 63 0 64 0 65 0 
768 0.2954455035725574 0.30469204447344206 0.004099212811463859 104 106 112 0.72 58 0 59 0 63 0 64 0 65 0 67 0 68 0 
769 -0.008134100511312026 0.3148473704293457 0.002948744693144434 123 118 123 0.63 58 0 59 0 63 0 64 0 65 0 67 0 68 0 
770 0.6330812577452558 0.28619004763623895 0.003630227521614904 177 178 181 0.45 58 0 63 0 64 0 65 0 68 0 
771 -0.8825142868363507 -0.026046033894610965 -0.02672256177291077 129 122 114 1.9 51 0 58 0 59 0 63 0 
772 -0.8442473962832088 0.36182060221654605 0.0009552716646406001 141 141 144 0.48 51 0 58 0 59 0 63 0 
773 -0.25618661416915145 0.32437100486103737 0.00010233960525019015 132 132 137 1.13 58 0 59 0 63 0 64 0 65 0 67 0 
774 -0.1304604485341575 0.31932686604433463 0.0027839736962333994 146 140 142 0.49 58 0 59 0 63 0 64 0 65 0 
775 0.6680761557010446 0.27958126223718477 0.005358748122527901 161 152 152 0.37 58 0 59 0 63 0 64 0 65 0 68 0 
776 -0.5577887835889872 0.3421436559777095 -0.0011883136803823025 93 91 97 0.94 51 0 58 0 59 0 63 0 64 0 65 0 
777 -0.3126684825799029 0.3262776405712942 0.0012995411925424971 153 150 150 0.63 51 0 58 0 59 0 63 0 64 0 65 0 67 0 68 0 
778 0.3450097631477158 -0.09036218342881641 0.00034735497388282965 133 126 128 0.75 58 0 63 0 64 0 65 0 
779 0.41363599744740154 -0.09314711369934153 -0.0021538612695455317 110 96 99 0.76 51 0 58 0 59 0 63 0 65 0 
780 -0.17960613879281528 0.31952503383653813 0.0006017075470681199 88 90 100 0.49 58 0 59 0 63 0 64 0 65 0 67 0 68 0 
781 0.37869773043322796 0.2931242782907875 0.0023886636277792306 138 132 133 0.52 58 0 63 0 64 0 65 0 
782 0.4052408489598691 0.2900946244487746 0.005181190487290932 155 151 148 0.7 58 0 63 0 64 0 65 0 68 0 
783 0.16090146302290131 0.30004781197704317 0.0014536073156534712 154 146 140 0.43 58 0 59 0 63 0 
784 -0.1427543786359703 -0.06110443448167846 -0.001786310820176773 90 87 92 0.28 58 0 59 0 63 0 64 0 
785 -1.3065812558699323 0.38572985751491823 -0.0008432346160307524 110 110 118 0.6 51 0 58 0 59 0 63 0 64 0 
786 -0.6486200239821598 -0.02995639613763834 -0.005069204879247335 122 106 103 0.52 58 0 59 0 63 0 65 0 68 0 
787 -0.6118389989405517 -0.03092970025692321 -0.007931949040878905 97 75 76 0.2 51 0 58 0 59 0 63 0 64 0 65 0 
788 0.0049666471572522575 -0.061797807762058954 -0.0030261163503604305 136 130 122 0.67 58 0 59 0 63 0 64 0 65 0 67 0 
789 0.3254545502096087 0.28311699925782713 0.005241447902267771 98 102 111 0.56 58 0 59 0 63 0 64 0 65 0 67 0 68 0 
790 0.6306237465128193 0.2688570587016988 0.005387835480484382 170 161 163 1.2 58 0 63 0 64 0 65 0 68 0 
791 -0.8747788381834045 0.3498756818637359 -0.0034003811625784586 111 104 113 0.63 51 0 58 0 59 0 63 0 64 0 65 0 
792 0.31549206931582985 -0.07075639658834171 -0.0018192191518400236 156 149 141 0.51 58 0 59 0 63 0 64 0 65 0 67 0 
793 0.19070990465480575 -0.06747542179190008 -0.002144694798907887 129 120 115 0.4 58 0 59 0 63 0 64 0 65 0 
794 0.18715045547166698 0.2841042854387161 0.0006472002216164618 131 125 124 1.27 58 0 59 0 63 0 64 0 65 0 67 0 
795 0.4927113455661951 -0.07915193939185677 0.0011478307794963172 136 133 137 0.34 58 0 63 0 64 0 65 0 
796 0.28199120079820306 -0.07108680998211453 3.2383361355581286e-05 142 139 137 0.38 58 0 59 0 63 0 64 0 65 0 
797 0.5396398200726782 0.26425027177855137 0.005215191867458335 126 130 135 0.54 58 0 59 0 63 0 64 0 65 0 67 0 68 0 
798 0.39835285334064463 0.2692903132218229 0.004985441741725216 119 106 110 0.54 51 0 58 0 59 0 63 0 64 0 65 0 67 0 68 0 
799 -0.034768256143091314 0.28748485551650677 0.001995730135675222 150 139 137 0.57 51 0 58 0 59 0 63 0 64 0 65 0 67 0 68 0 
800 -0.4593512892478675 -0.02811422449069073 -0.005111004924590157 71 63 71 1.19 58 0 63 0 64 0 65 0 
801 -0.35712543237060046 -0.03325935242221312 -0.004054196983913405 75 63 57 0.32 51 0 58 0 59 0 63 0 64 0 65 0 67 0 68 0 
802 -0.2332051653761762 -0.039200009294855453 -0.004587536304498485 147 133 135 0.3 58 0 59 0 64 0 65 0 
803 0.5687250413087612 -0.08001870136128619 -0.0028088356525068914 137 125 123 0.15 58 0 59 0 63 0 
804 -0.4932316818657897 -0.026839014804899752 -0.004168552892509059 177 181 182 0.57 51 0 58 0 59 0 63 0 64 0 65 0 67 0 68 0 
805 0.11334346264418693 0.2799510204795617 0.0028099752521253407 98 107 122 0.61 58 0 59 0 64 0 65 0 
806 -0.7940791054394545 0.32765863616749497 -0.0028333696353699533 143 138 140 0.74 51 0 58 0 59 0 63 0 64 0 65 0 67 0 68 0 
807 -0.12823881148762106 0.2919399891734831 -0.0037732509179038143 122 125 132 1.01 51 0 58 0 59 0 63 0 64 0 65 0 67 0 68 0 
808 -0.7746159544660722 -0.0043078691193620955 -0.019030868199534146 133 127 122 0.78 51 0 58 0 59 0 63 0 
809 -0.26985024717591133 -0.0357455955712887 -0.0009442735353277776 125 124 128 0.53 51 0 58 0 59 0 63 0 64 0 65 0 67 0 68 0 
810 0.05051885417218083 -0.050240644001263046 -0.004821998244134207 121 119 117 0.52 58 0 59 0 63 0 64 0 65 0 
811 -0.3093712490605427 0.29329246200336695 0.000703260839687081 99 101 113 0.61 51 0 58 0 59 0 63 0 64 0 65 0 67 0 68 0 
812 -0.2173998552546237 0.2900233690711201 -0.0011238051381698977 94 96 108 0.51 58 0 59 0 63 0 65 0 67 0 68 0 
813 0.30602996261027027 0.2606624480951098 0.007230907590770164 176 168 161 0.69 58 0 59 0 63 0 65 0 
814 -0.6358968403247446 -0.009463306126134052 -0.00926336448680476 141 132 123 0.28 51 0 58 0 59 0 63 0 
815 0.34559120232979024 -0.058884583686895975 -0.001505773282890921 156 154 151 1.31 58 0 59 0 63 0 64 0 65 0 67 0 
816 -0.16252728783990322 -0.02573264501812922 -0.004852247411727406 149 138 139 0.65 58 0 59 0 63 0 
817 -0.11831757131903287 -0.02828767674207089 -0.004780714340187453 126 118 114 0.55 51 0 58 0 59 0 63 0 64 0 65 0 68 0 
818 -0.07996964501117532 -0.0314221215601061 -0.006360338902640095 124 121 118 0.68 58 0 59 0 63 0 64 0 65 0 67 0 
819 0.5901889141784542 -0.0683990555848012 0.003839098264035723 132 122 122 0.47 58 0 59 0 63 0 64 0 68 0 
820 -1.6241033515657963 0.38183750929105004 -0.015178837957247504 128 107 110 0.24 58 0 63 0 64 0 
821 -1.0076185470400671 0.022278158361998368 -0.015737105597077194 107 94 93 0.41 58 0 59 0 63 0 64 0 65 0 67 0 68 0 
822 -0.9602677652099217 0.01836335749960788 -0.008080176688594065 153 146 141 0.23 51 0 58 0 59 0 63 0 64 0 
823 -0.9140313271210483 0.013678576122554575 -0.009012251507211744 151 138 126 1.03 51 0 58 0 59 0 63 0 64 0 65 0 
824 0.6719780809048563 0.23541133926289654 0.005711111662383139 169 161 154 0.38 58 0 59 0 63 0 64 0 65 0 67 0 68 0 
825 -0.5741636826273909 0.29963047636881673 -0.0026183076541335115 102 98 103 0.53 58 0 59 0 63 0 64 0 65 0 
826 -0.15474032601200416 0.27741727053066506 -0.0005282510502897519 148 123 120 0.39 58 0 59 0 63 0 64 0 67 0 
827 0.6461269726981995 0.23592636540978745 0.00510025630534372 174 170 168 0.9 58 0 59 0 64 0 65 0 67 0 68 0 
828 -1.669228851049748 0.3779663671315539 -0.007966682979392958 118 99 105 0.39 58 0 63 0 64 0 65 0 
829 -0.8438866944224614 0.014824165096284314 -0.011743033036312411 153 134 123 0.23 58 0 59 0 64 0 
830 -0.5481987289190295 -0.0024090023971471974 -0.005670446073256841 92 85 94 0.7 58 0 59 0 64 0 65 0 
831 0.35801490794708024 0.2441150114698974 0.005865865931728997 155 148 150 2.5 58 0 59 0 64 0 68 0 
832 0.39263487549318876 0.24572503640336946 0.0015821514096880929 169 162 164 0.58 58 0 59 0 63 0 64 0 65 0 67 0 
833 0.03343279561914381 0.2595038967162098 -0.0006363814685161895 132 116 117 0.43 58 0 59 0 63 0 65 0 
834 0.1671419561724241 0.24995715089749854 0.004052511607807618 148 144 142 0.71 58 0 59 0 64 0 65 0 
835 0.187344545194003 0.24993763723773516 0.0064077409012675 156 148 150 0.95 58 0 59 0 63 0 65 0 
836 0.29501082071234697 -0.04255423316599455 -0.000783047971511408 128 118 110 0.42 58 0 59 0 63 0 64 0 65 0 67 0 
837 0.3145137460516134 -0.04337407040668423 -0.001253552022903337 129 125 118 0.65 58 0 59 0 63 0 64 0 65 0 67 0 
838 -1.116461619466663 0.040128932674545925 -0.021424233047634855 119 119 129 0.7 58 0 59 0 63 0 
839 0.3417150261368409 -0.03546577026175973 0.0011041916808787189 138 133 126 0.54 58 0 59 0 63 0 64 0 65 0 67 0 
840 -0.19312030350208342 -0.01420621416109269 0.006693408387024036 141 140 140 0.57 58 0 59 0 63 0 
841 -0.09408870497721789 -0.015219811953493145 -0.004697911648651187 129 111 103 0.52 58 0 59 0 63 0 64 0 65 0 
842 0.161950240514809 -0.024980144556866868 -0.002432598299784816 128 111 106 0.73 58 0 59 0 63 0 64 0 
843 0.40690642863629733 -0.0373106427325301 0.0005176004477263074 80 71 78 0.66 51 0 58 0 59 0 63 0 64 0 65 0 67 0 
844 0.44148400925573017 -0.03854609082909938 -7.495151613445827e-05 81 78 81 0.4 58 0 59 0 63 0 64 0 65 0 67 0 
845 -0.7396721189261461 0.3000316037562197 -0.01032928355415419 151 148 151 0.92 51 0 58 0 59 0 63 0 64 0 65 0 
846 -0.6897620826036363 0.29457582691714873 -0.0009688257126059252 151 145 141 0.46 51 0 58 0 59 0 63 0 
847 -0.40453859404567527 0.27240747139815086 0.0009056549784542955 138 125 127 0.35 58 0 59 0 64 0 
848 -0.2227293377721844 0.2604891373035559 0.009311803888853554 164 162 160 3.57 58 0 59 0 63 0 64 0 65 0 
849 0.5494877473759197 0.22648895071460334 0.0033554484281808072 158 153 150 0.47 58 0 59 0 63 0 64 0 65 0 67 0 68 0 
850 -0.5729058912673214 0.02095222547924991 -0.027908211403156358 123 117 121 1.16 58 0 59 0 63 0 
851 0.27457383300915916 -0.027880688651340635 -0.0022802275231437186 120 113 111 0.48 58 0 59 0 63 0 64 0 65 0 
852 0.2936971560866517 -0.029716833309740953 0.0021886028950510727 123 114 107 1.52 58 0 63 0 64 0 65 0 
853 0.4781332479297222 -0.03797993317882142 0.0009083854762996779 97 94 97 0.3 51 0 58 0 59 0 63 0 64 0 65 0 
854 -1.2976007957561424 0.05549117129517894 -0.014015043523714077 145 142 144 0.91 51 0 58 0 59 0 63 0 65 0 
855 -0.7683750090413384 0.294695986568061 -0.0030174614022018265 184 187 187 0.34 58 0 59 0 63 0 65 0 
856 -0.17891619277419868 0.2593333671336511 0.000815418196001394 122 123 124 0.54 58 0 63 0 64 0 67 0 
857 0.5247423660331239 0.2264068556276319 0.002277463210666575 164 155 151 1.47 58 0 59 0 64 0 65 0 
858 -1.1888105328169993 0.3225304805090035 -0.0071208710080639115 111 86 87 0.42 58 0 59 0 64 0 
859 0.5658842465725222 -0.04206857576470374 0.009314342776842066 123 123 125 1.11 58 0 59 0 63 0 64 0 68 0 
860 0.2526747729229686 -0.025117844900636344 -2.767696401484443e-05 118 97 100 0.22 58 0 59 0 63 0 64 0 65 0 
861 0.3175253476692055 -0.028994072038322993 -0.0008015634254561199 121 115 111 0.31 58 0 59 0 63 0 64 0 65 0 
862 0.5378999360488206 -0.039370578785961396 0.00349610821091928 130 121 120 0.49 58 0 59 0 63 0 64 0 65 0 
863 0.475441015298131 0.2242938613306273 0.00597084571554829 150 141 136 0.3 58 0 59 0 63 0 64 0 65 0 67 0 
864 -0.29238754979533754 0.2595519247080566 -0.00016895638101077637 127 127 131 0.62 51 0 58 0 59 0 63 0 64 0 65 0 67 0 68 0 
865 -0.1699809676052657 0.0017257746476493918 -0.005830396023724038 133 116 118 0.15 58 0 59 0 63 0 
866 -0.9192735503831915 0.04455578068179866 -0.009616627713097792 120 105 95 0.46 51 0 58 0 59 0 63 0 64 0 65 0 
867 -0.8920759972177776 0.043433595418268134 -0.007832497220218837 158 146 135 0.44 51 0 58 0 59 0 63 0 64 0 
868 -0.8433216390174235 0.040489675836912264 -0.008315918090440633 155 144 133 0.44 51 0 58 0 59 0 63 0 64 0 
869 0.18564814195568058 -0.009943661706190154 -0.0037981970872753568 132 123 118 0.99 58 0 59 0 63 0 64 0 65 0 67 0 68 0 
870 0.22948030753043902 -0.013526358238953484 -0.0009290531118884005 140 132 124 0.62 58 0 63 0 64 0 65 0 67 0 68 0 
871 -0.7303511585557001 0.03764762861201226 -0.0076944440615063225 127 117 120 0.41 58 0 63 0 64 0 65 0 68 0 
872 0.15360698931582561 -0.009236887369268698 -0.0017154614101773102 137 125 115 0.47 51 0 58 0 59 0 63 0 64 0 65 0 67 0 68 0 
873 -1.3969368850693231 0.08002292341838824 -0.010591866237259717 142 130 132 0.2 58 0 63 0 64 0 65 0 
874 0.35790042317162873 -0.017648581128850482 0.002214358050914189 152 152 150 0.52 58 0 59 0 63 0 64 0 65 0 
875 -0.050166128170072266 0.009568716273745281 -0.0010852732028363565 134 123 120 0.8 58 0 59 0 63 0 64 0 65 0 
876 -0.2674782948974094 0.01682370326036431 -0.0014396522015718283 155 160 162 0.22 58 0 59 0 63 0 64 0 65 0 67 0 
877 -0.5927081927632265 0.2724383115059725 -0.0023907799516726946 90 89 98 0.36 58 0 59 0 63 0 64 0 
878 -0.04243216548013162 0.242767014814737 0.0030640599587230533 149 139 141 0.39 58 0 59 0 63 0 65 0 
879 0.1514742176405035 0.23563264014180724 -0.00035228742619919373 162 153 150 1.1 58 0 59 0 63 0 64 0 65 0 
880 -0.3843996997557698 0.258636973359937 -0.0019929121129806937 187 186 184 0.11 58 0 59 0 64 0 
881 -0.46585923866176226 0.03263878036835682 -0.0031919251007952454 173 180 185 0.46 58 0 59 0 63 0 65 0 
882 0.040625946772850474 0.008535973427425625 -0.0029370993381097055 116 105 103 0.73 51 0 58 0 59 0 63 0 64 0 65 0 67 0 68 0 
883 0.08438054108531112 0.0065387003467648475 -0.0013122156111189387 135 123 118 0.55 58 0 59 0 63 0 64 0 65 0 
884 -1.3621825838056205 0.08591482920182325 -0.01223518833931636 143 132 132 0.55 51 0 58 0 59 0 63 0 
885 -0.8907809762974139 0.05987541433511684 -0.01373475906530719 131 115 110 0.4 58 0 59 0 64 0 
886 -0.462921551435307 0.2616287611233841 -0.003615885361621274 110 116 127 0.46 58 0 59 0 63 0 64 0 65 0 68 0 
887 -0.9082612310260113 0.2875178679891239 -0.004675947974390082 166 162 159 0.68 51 0 58 0 59 0 63 0 64 0 
888 0.5614523833762113 0.20515488281820465 0.0038473940577883337 94 90 103 0.46 58 0 59 0 63 0 64 0 65 0 67 0 68 0 
889 0.2958833709709161 -0.001350024535995642 0.00032188857825410366 152 141 141 0.52 58 0 59 0 63 0 64 0 65 0 
890 -0.6208878823124065 0.044494016084456245 -0.008457367576305108 150 141 143 0.35 58 0 59 0 63 0 
891 -0.3930456328985049 0.027910455250514 0.009776315973276661 184 192 199 0.31 58 0 59 0 63 0 65 0 68 0 
892 -0.9445447520951002 0.2842425342810864 0.0020454735326174145 71 69 75 1.2 51 0 58 0 59 0 63 0 64 0 
893 -0.8040442578755098 0.27478901754169655 -0.0028721903951827166 109 115 127 0.62 51 0 58 0 59 0 63 0 65 0 
894 0.4287625065954388 0.20558731045408624 0.017436383534749078 149 155 159 0.66 58 0 59 0 63 0 
895 -1.1078679355984455 0.07817175564785911 -0.009193187690679894 115 100 104 0.84 51 0 58 0 59 0 63 0 
896 -0.22075855412456669 0.028046095136535276 -0.004030810241104632 141 132 135 0.34 58 0 59 0 65 0 
897 0.5630966871242518 -0.012892651863300464 0.002706638662291372 115 115 126 0.53 58 0 59 0 63 0 64 0 65 0 68 0 
898 0.6124969840167973 -0.01422670700212425 0.0034892204499623602 127 125 128 1.02 58 0 59 0 63 0 64 0 65 0 67 0 68 0 
899 0.18390771911015147 0.22025819429372023 0.0001088317532209615 155 163 161 0.33 58 0 59 0 63 0 65 0 
900 0.19708596694947333 0.22033412282012682 -0.0004019400149517516 99 92 95 0.29 58 0 59 0 64 0 65 0 
901 0.40913658475076775 0.209919370534366 0.0038649280407361264 63 69 84 0.53 58 0 59 0 63 0 64 0 65 0 67 0 68 0 
902 -0.02083335392181196 0.22721648635274344 0.0003834853571307306 160 158 157 0.37 58 0 59 0 63 0 64 0 65 0 67 0 68 0 
903 0.024543408278725254 0.22462686705408103 0.004968715472237539 167 153 139 0.5 58 0 59 0 64 0 
904 -0.14663630292600072 0.02483953630474861 -0.003870835018581209 148 139 141 1.03 58 0 59 0 64 0 65 0 
905 -0.07158504807978339 0.02760577838813294 -0.007388859756781052 137 126 127 0.88 58 0 63 0 64 0 65 0 
906 0.08524294953150191 0.020702522497191067 -0.00025495450294887867 104 92 85 0.37 58 0 59 0 63 0 64 0 65 0 
907 0.10368795423672905 0.019181817196832818 5.581891897654678e-05 102 105 110 0.7 58 0 59 0 63 0 64 0 65 0 67 0 
908 0.04535519841632807 0.22033967359125434 0.004186410192257073 142 133 133 0.66 58 0 59 0 63 0 64 0 65 0 67 0 68 0 
909 0.0733640438019818 0.22059467886374523 0.0017287370855438855 123 116 122 0.69 58 0 59 0 63 0 64 0 65 0 
910 -1.4709534853941737 0.3172910606879796 -0.011531593012148234 56 81 104 0.17 58 0 63 0 65 0 
911 -0.8548949886308547 0.27074205425845405 -0.0036491894951027337 131 120 122 0.09 58 0 59 0 65 0 
912 -0.6738257641344172 0.25898258679098723 -0.003635843855992249 95 96 105 0.58 51 0 58 0 59 0 63 0 64 0 65 0 67 0 
913 -0.36092477324068595 0.23983357791584098 -0.0018234790046651739 133 127 126 0.67 58 0 59 0 63 0 64 0 
914 -0.2695758637039849 0.23695018519347816 -0.00290740546728796 144 133 129 0.7 58 0 63 0 64 0 65 0 
915 0.19042024041146322 0.017031050483535537 0.0013890676022934034 122 119 115 0.74 58 0 59 0 63 0 64 0 65 0 67 0 68 0 
916 0.21179630867724475 0.016305542894126723 0.00010398173474079897 123 112 102 0.3 58 0 59 0 63 0 64 0 65 0 67 0 
917 0.23483644511867818 0.01474974958892733 -0.0008473761952272341 125 121 117 0.56 58 0 59 0 63 0 64 0 65 0 67 0 
918 0.2563595826865692 0.01393645052147302 0.000576705148787493 140 137 134 0.41 58 0 59 0 63 0 64 0 65 0 67 0 68 0 
919 0.37778917537405543 0.009584591723604874 0.0012679091689054012 150 138 138 0.45 58 0 59 0 65 0 
920 0.4622115706194383 0.004928086888182748 0.003143014616503681 164 162 164 0.83 58 0 59 0 63 0 64 0 65 0 
921 -0.14365429532229368 0.2246043805181413 -0.0005818220556252918 159 160 161 0.75 51 0 58 0 59 0 63 0 64 0 65 0 
922 -0.33149425028743584 0.04565454236400451 0.0028210933850842945 175 181 185 0.76 58 0 59 0 63 0 64 0 65 0 68 0 
923 0.5427216814932443 0.0035336759674967633 -0.00045122485630533227 116 113 115 0.62 51 0 58 0 59 0 63 0 64 0 65 0 
924 -0.8011334044920351 0.07425614369028477 -0.0032273881257847137 167 169 166 0.66 58 0 59 0 63 0 
925 -0.7761596750898186 0.0733467849151973 -0.00787156913766518 107 97 100 0.53 51 0 58 0 59 0 63 0 64 0 65 0 
926 -0.49107500236411894 0.05536689874100037 -0.0014248110870609398 168 164 158 0.56 58 0 59 0 63 0 64 0 65 0 
927 -0.2932218888085737 0.04831650227804257 -0.0010313942703512602 195 206 214 0.48 58 0 59 0 63 0 64 0 65 0 
928 0.548044549180372 0.18982963353828258 0.0006414779779368995 158 153 149 0.32 58 0 63 0 65 0 
929 -0.5645119864021353 0.24503836295513653 -0.004248957032032985 142 129 127 0.75 51 0 58 0 59 0 63 0 64 0 65 0 
930 0.6268156050489602 0.17946888216687623 0.005553258185391652 94 101 105 0.43 58 0 59 0 63 0 64 0 65 0 67 0 68 0 
931 -1.1193532813903575 0.2765803946106968 -0.004359300313581116 174 172 171 0.38 58 0 59 0 63 0 
932 -0.2504895269263544 0.04685608434342525 -0.0025010238890539327 119 110 117 0.36 58 0 59 0 63 0 64 0 
933 -0.8445693949629107 0.08327808818202809 -0.013079528715780553 131 115 111 0.6 58 0 59 0 63 0 
934 0.5913127599272445 0.18004886357539113 0.004233062486393102 118 111 113 0.3 58 0 65 0 67 0 
935 -1.1455094286878114 0.27689240879409677 -0.005882544651819144 182 170 165 0.62 51 0 58 0 59 0 63 0 65 0 
936 0.006761799751381803 0.2084211411562658 -0.002852634547182875 135 127 127 0.58 58 0 59 0 63 0 64 0 65 0 67 0 68 0 
937 -0.307496570335677 0.053458623052405174 0.00039684687509811134 163 176 188 0.73 58 0 59 0 63 0 
938 0.13226326900022078 0.03355823781147843 -0.0013562767571266843 116 112 107 0.5 58 0 59 0 63 0 64 0 67 0 
939 0.2809870717218965 0.025250451057360512 0.0009773243007400456 107 93 94 1.07 58 0 59 0 63 0 64 0 65 0 67 0 
940 0.15315377210362535 0.033617335511635094 -0.0035042175172972367 104 102 104 0.7 58 0 59 0 63 0 64 0 67 0 68 0 
941 -0.025262531833996515 0.20290541288123048 0.002293734276077375 120 113 113 0.58 58 0 59 0 63 0 64 0 65 0 67 0 68 0 
942 -0.5324027000454229 0.06998383508454692 -0.004175617964921496 122 118 122 0.57 51 0 58 0 59 0 63 0 64 0 65 0 
943 -0.02981275452677612 0.052105845167150056 -0.0018230270213692723 132 116 114 0.48 58 0 59 0 63 0 65 0 
944 0.028593858621335455 0.048026525434278045 -0.0020733283539149383 94 96 104 0.53 58 0 63 0 64 0 65 0 
945 -1.5168748162438155 0.13467019617120496 -0.010352990084448344 131 130 132 0.25 58 0 63 0 64 0 65 0 
946 -0.42378551837506306 0.0654391044577392 0.0019495701436289536 106 99 99 0.39 51 0 58 0 59 0 63 0 64 0 65 0 67 0 
947 0.48342006879724897 0.17788719774542355 0.002154405771268131 161 167 172 0.9 58 0 59 0 63 0 64 0 65 0 67 0 
948 -1.3355954625159603 0.2830110130430375 -0.00683734736656505 140 128 128 0.49 51 0 58 0 59 0 63 0 64 0 65 0 67 0 
949 0.057250996319201164 0.19644999266517532 0.0012390410846432331 130 120 120 0.82 58 0 59 0 63 0 64 0 65 0 67 0 68 0 
950 0.329450661687662 0.18433530072851362 0.0011850408831357573 161 155 157 0.46 58 0 59 0 63 0 65 0 68 0 
951 -1.2380525651121546 0.12757304556406207 -0.013221773452576802 124 105 101 1.31 58 0 59 0 63 0 
952 0.1783819037795511 0.04702621104418436 -0.0034612045460262753 123 114 109 0.56 58 0 59 0 63 0 64 0 65 0 67 0 68 0 
953 -0.39102001181568347 0.07284948676211511 -0.0016367426160446286 114 121 130 0.48 58 0 59 0 63 0 64 0 
954 0.10494844653184265 0.04779523711845218 -0.0003212746459932969 101 99 96 0.15 58 0 63 0 64 0 65 0 67 0 
955 -0.8290894746318818 0.2419694491805538 -0.0077742977621804155 169 165 164 0.73 58 0 59 0 63 0 
956 0.6121910209087675 0.163982563949076 0.0027208859019767218 134 120 120 0.39 58 0 59 0 63 0 64 0 65 0 67 0 68 0 
957 -1.206351855111465 0.12597182172512028 -0.009084284796130326 134 115 109 0.35 51 0 58 0 59 0 63 0 64 0 65 0 67 0 68 0 
958 0.2909250738341791 0.04221202774033922 0.0030716791599352256 134 128 127 0.35 58 0 63 0 64 0 65 0 
959 -1.0807938255502414 0.1251614204750145 -0.023069687872078415 137 138 139 0.93 58 0 59 0 63 0 64 0 
960 0.41816846545876785 0.038848770040779745 0.0009657718214926003 158 150 149 0.6 58 0 59 0 63 0 64 0 65 0 
961 0.5043491450563551 0.034095953417663916 0.0027099683504165917 161 150 150 0.62 58 0 63 0 65 0 
962 -0.6752719999358772 0.2274192160409126 0.005207012405589628 159 152 152 1.82 51 0 58 0 59 0 63 0 65 0 
963 -0.31892618194895905 0.20934527878417347 -0.001601510415657259 172 162 154 0.35 58 0 59 0 63 0 64 0 
964 0.5360792381465347 0.161602747240761 0.005312783488727213 140 140 140 0.88 51 0 58 0 59 0 63 0 64 0 65 0 68 0 
965 -0.5373738967437915 0.2180567694705689 -0.008647957802406792 146 138 134 0.36 58 0 59 0 63 0 68 0 
966 0.15185736929293858 0.05829378815870501 0.0005477042487214145 143 138 130 0.54 58 0 59 0 63 0 64 0 65 0 67 0 68 0 
967 -0.8933676351544438 0.11141569407827207 -0.0031365915610686024 139 134 131 0.48 51 0 58 0 59 0 63 0 64 0 
968 0.38426435471799647 0.0510858888066974 0.0008391523315329774 78 75 86 0.43 51 0 58 0 59 0 63 0 64 0 65 0 67 0 68 0 
969 0.242654339113213 0.05446826634269991 0.002886546936819334 135 135 134 0.81 58 0 59 0 63 0 64 0 65 0 67 0 68 0 
970 -0.8554057618935592 0.10973564862618718 -0.0047786880773563745 134 116 115 0.35 51 0 58 0 59 0 63 0 64 0 
971 -0.06685326505826528 0.06873655014313101 -0.004074038397409607 149 147 147 0.79 58 0 59 0 63 0 64 0 65 0 
972 -0.5991655010076704 0.21608536188631083 -0.0023697432360392234 149 143 147 0.52 51 0 58 0 59 0 63 0 
973 0.22100557577271185 0.17343673120088715 -0.0005181542202565836 124 121 131 0.7 58 0 59 0 63 0 64 0 65 0 67 0 68 0 
974 0.34193588724305224 0.16679546543266982 0.002942926490727693 151 146 148 0.95 58 0 59 0 63 0 64 0 65 0 67 0 68 0 
975 -1.6747077138553457 0.28986123710756145 -0.00952069431210556 148 130 124 0.15 58 0 63 0 64 0 
976 0.37170263518996505 0.16672781638027528 0.0022205469848013415 182 187 188 0.91 58 0 59 0 63 0 64 0 65 0 68 0 
977 -0.6627166015702751 0.10738328474042041 -0.006766371803444748 104 91 88 0.34 51 0 58 0 59 0 63 0 64 0 65 0 
978 -1.3305009897912512 0.146677896321404 -0.006275092955722927 98 90 102 0.15 58 0 59 0 63 0 
979 -0.2932183931898269 0.09394566227343953 -0.008747405791034168 171 167 160 1.44 58 0 59 0 63 0 64 0 
980 0.09474785898136195 0.17548022854604134 0.0058671207967539996 147 146 145 1.22 58 0 59 0 63 0 64 0 
981 0.5623476943138428 0.05581750292137638 0.0034826613118936756 87 76 83 0.57 51 0 58 0 59 0 63 0 64 0 65 0 67 0 68 0 
982 0.5967681761155288 0.05446774939487059 0.003609243911441462 84 80 88 0.53 58 0 59 0 63 0 65 0 67 0 68 0 
983 0.20086426357136622 0.07108120386382166 -0.0007101694818616444 160 158 150 0.65 58 0 59 0 63 0 64 0 65 0 
984 -0.9938281013702621 0.1431322987869968 -0.008913722698439264 138 127 130 0.36 58 0 59 0 63 0 
985 0.245758172711239 0.0718448288517205 0.005243161935215346 143 142 141 0.38 58 0 59 0 65 0 67 0 
986 0.32929918870043107 0.06990170348041047 0.0022627362290472686 162 158 154 0.3 58 0 59 0 63 0 67 0 68 0 
987 0.474301829368746 0.06289989075696645 0.0019053116135565595 114 111 112 0.54 58 0 59 0 63 0 64 0 65 0 67 0 
988 -0.18823790361120052 0.18508514863229247 0.00046827449364084117 115 112 117 0.72 58 0 59 0 63 0 65 0 
989 -0.22816801711354662 0.10079889504275291 0.002548319055214243 137 117 117 1.12 58 0 59 0 65 0 
990 -0.19291817646857645 0.0997373148391762 0.0013543757287470815 143 128 129 0.67 58 0 59 0 63 0 64 0 65 0 
991 0.5977607836089383 0.145753396707949 0.003366073094354327 135 134 135 0.44 58 0 59 0 63 0 64 0 65 0 67 0 
992 0.6248550459556943 0.14409163776779016 0.0037913547832459926 126 124 129 0.88 58 0 59 0 63 0 65 0 67 0 
993 -0.4185822545621023 0.1927887903214312 -0.002254779599861756 133 112 109 0.63 58 0 59 0 63 0 64 0 
994 0.5212267863206159 0.14696715741794647 0.003154017371652662 127 118 119 0.47 58 0 64 0 65 0 68 0 
995 -0.07804318645167696 0.1002612472842162 -0.005677953942820224 174 170 169 1.11 58 0 63 0 64 0 
996 -1.1808880848250882 0.16837593203378814 -0.006279584639586222 156 154 158 0.58 58 0 59 0 65 0 
997 -0.6253690170663014 0.13449116080070384 -0.0076161410304325106 148 140 140 0.46 58 0 59 0 64 0 
998 -0.32991164377295945 0.11824126028759457 -0.004341303118523321 118 110 118 0.43 58 0 63 0 64 0 
999 -0.8503064050148705 0.2122201827086861 -0.0017312347752422852 145 143 144 0.51 51 0 58 0 59 0 63 0 64 0 65 0 
1000 -0.7306229067058703 0.20530007777371623 -0.0034599344025776357 123 111 116 0.43 58 0 59 0 64 0 
1001 -0.6494631485431628 0.20089832254115197 -0.007378343768662532 140 135 137 1.0 58 0 63 0 64 0 65 0 67 0 
1002 -0.35082458685284956 0.12020788179892855 -0.00022010516934845015 125 128 128 0.35 58 0 63 0 64 0 
1003 0.38335203153835073 0.08525142403630781 0.0002951570011286986 141 136 135 0.6 58 0 59 0 63 0 64 0 65 0 
1004 0.5807075200059313 0.07178116396210382 0.007087918140840088 164 160 162 0.51 58 0 63 0 64 0 65 0 67 0 68 0 
1005 -0.03930505734848899 0.16759848283293505 0.0009289592528403112 150 132 130 1.12 58 0 59 0 63 0 64 0 65 0 67 0 
1006 -0.7695625614949679 0.1557208757732665 -0.020350375682614885 151 147 139 0.74 58 0 59 0 64 0 
1007 -0.888817350440137 0.15426494536886365 -0.004940849274157388 139 132 135 0.63 51 0 58 0 59 0 63 0 
1008 0.5208753211739223 0.0794235414588475 -0.0003648975076506744 151 139 136 1.55 58 0 59 0 63 0 64 0 67 0 68 0 
1009 0.6090550315194396 0.0762140956918283 0.001315879254794039 152 145 144 0.97 58 0 59 0 63 0 64 0 65 0 67 0 68 0 
1010 -0.7215339572339453 0.14893737443005844 -0.005031265576542321 134 131 131 0.3 51 0 58 0 59 0 63 0 64 0 65 0 
1011 0.2545394448714502 0.09738180957878434 0.0005166318266096592 118 107 109 0.58 51 0 58 0 59 0 63 0 64 0 65 0 
1012 -0.7929849312684876 0.14902797324905653 -0.0039156291607527205 137 135 138 0.6 51 0 58 0 59 0 63 0 64 0 65 0 
1013 -0.8958389605340095 0.21102068159111004 -0.0073080590764385 140 133 136 0.44 58 0 59 0 63 0 64 0 65 0 67 0 68 0 
1014 -0.6191438146603219 0.19429181585546346 -0.00279243873092061 125 112 112 0.5 51 0 58 0 59 0 63 0 64 0 65 0 68 0 
1015 0.33541387938226985 0.14221963209388905 0.003871568783935464 114 101 104 0.82 58 0 59 0 63 0 64 0 65 0 67 0 68 0 
1016 0.06934884951891251 0.1129882905123723 0.002548511900308803 89 84 91 0.83 51 0 58 0 59 0 63 0 64 0 65 0 67 0 68 0 
1017 0.1475306771062581 0.10547405891871597 0.001831455586046804 125 118 116 0.84 58 0 59 0 63 0 64 0 65 0 
1018 0.013028881434384632 0.11978726962988245 -0.0024206090371960975 112 105 110 0.61 51 0 58 0 59 0 63 0 64 0 65 0 68 0 
1019 0.5732222268461677 0.09169999312364696 0.0016089236477008217 160 155 154 0.48 58 0 63 0 64 0 65 0 67 0 
1020 0.2741979239632901 0.1387004890501385 0.004430703033960537 123 113 117 0.76 58 0 63 0 64 0 65 0 67 0 68 0 
1021 0.6049879760660595 0.12297635903492882 0.006037483046015035 78 81 94 0.6 51 0 58 0 59 0 63 0 64 0 65 0 68 0 
1022 0.40845069394171163 0.10730760869116757 0.0011323024164624496 146 143 152 0.94 58 0 59 0 63 0 64 0 65 0 68 0 
1023 -1.1505185268748235 0.1906215424747963 -0.006494068742841641 87 102 114 0.57 51 0 58 0 59 0 63 0 
1024 -0.748340490824447 0.16642037337000098 -0.009231172538453736 146 137 120 0.41 58 0 59 0 63 0 
1025 0.20176047041666734 0.11310051742971111 0.0019790299205093564 75 82 93 0.5 58 0 59 0 63 0 64 0 65 0 68 0 
1026 0.49570044224525334 0.09898440221300842 0.002391572309539347 128 124 125 0.57 58 0 59 0 63 0 64 0 65 0 67 0 
1027 -0.10812700269256725 0.13783829203784798 -0.00045337491691399556 122 111 110 0.48 58 0 59 0 64 0 65 0 67 0 
1028 0.2521990781958574 0.12354061084702611 0.002241741892676785 84 87 97 0.62 58 0 59 0 63 0 64 0 65 0 67 0 68 0 
1029 -1.0604865773774523 0.20129004665016353 -0.005594316416173362 146 133 130 1.13 51 0 58 0 59 0 63 0 
1030 -0.4564818609199566 0.16275150169765745 -0.0046908807457763935 102 91 92 0.74 51 0 58 0 59 0 63 0 64 0 65 0 67 0 68 0 
1031 0.3504389436299411 0.12102130338838374 0.003744184259386829 88 95 107 0.38 58 0 59 0 63 0 65 0 
1032 0.43944987360300813 0.11859077789485012 0.0017897320753947898 98 88 94 0.48 58 0 64 0 65 0 
1033 -0.6725664710201731 0.17566547684206496 -0.009648225547964184 137 135 137 0.81 58 0 59 0 63 0 64 0 
1034 -0.14024336236652368 0.15291470616140118 -0.0013615632470713734 150 126 114 0.23 58 0 59 0 63 0 64 0 65 0 
1035 -0.42019252320128175 0.1633810921100159 -0.0026187921209746 151 151 150 1.2 51 0 58 0 59 0 63 0 64 0 65 0 
1036 -0.38109420879992195 0.1577119732688524 0.006258683491876305 150 143 140 1.07 58 0 59 0 63 0 
1037 -0.07530700333650797 0.7952611822486937 0.0073515918916315925 150 148 158 0.76 58 0 63 0 64 0 65 0 67 0 68 0 
1038 0.18452655155815423 0.76931942683518 0.012388560456027431 134 120 126 0.47 58 0 63 0 64 0 65 0 67 0 
1039 -0.29834147142036804 0.15916576836532653 -0.004298996593903315 132 123 120 0.57 58 0 59 0 63 0 64 0 65 0 
1040 -0.25813750827351867 0.1583997593516045 -0.0036159759153653326 114 102 100 0.57 58 0 63 0 64 0 65 0 67 0 
1041 0.3188640687501423 0.12270162160331816 -0.00010927949943195792 112 111 118 1.14 58 0 59 0 63 0 64 0 65 0 67 0 68 0 
1042 -0.9832286364785957 0.1882111058989196 -0.009720094593271833 147 140 145 1.51 51 0 58 0 59 0 63 0 65 0 
1043 0.6185593844333639 0.0999285832138529 0.006741628261669463 144 140 138 0.86 58 0 59 0 63 0 64 0 65 0 67 0 68 0 
1044 -0.1988367967902498 0.1408030796626108 -0.003969927673080242 111 99 98 0.48 58 0 59 0 63 0 
1045 -0.05503102824580641 0.15228726795753716 -0.0008612439110446957 128 114 113 0.7 51 0 58 0 59 0 63 0 64 0 65 0 67 0 
1046 -0.09293331214073697 0.15611366531347387 -0.006268224749254481 156 150 152 0.8 58 0 59 0 63 0 64 0 65 0 67 0 68 0 
1047 0.1938506198097698 0.1380841837202244 0.012750723076849102 148 139 135 0.6 58 0 59 0 63 0 64 0 
1048 -1.1467502926473463 0.21957421147175388 -0.007141144683016076 180 169 160 0.56 51 0 58 0 59 0 63 0 
1049 0.3132709997301528 0.7357907078407124 0.011934982913565095 109 119 128 1.58 58 0 63 0 64 0 65 0 
1050 -0.6057786579887111 0.152263464629612 0.00014643630078103875 96 86 90 0.44 58 0 63 0 64 0 
1051 0.046342426168343165 0.11053339116902189 -0.0005201159889853813 104 96 102 1.21 58 0 59 0 65 0 
1052 0.46030891426413856 0.09535711462532187 -0.007428443348403091 155 159 162 0.56 58 0 59 0 64 0 
1053 0.6513380250829301 0.08412857754513003 0.004798674644798551 116 113 118 0.37 58 0 59 0 63 0 64 0 65 0 67 0 68 0 
1054 -0.09089278328819583 0.12120279059367572 0.00041433952459635215 106 92 90 0.35 58 0 59 0 64 0 65 0 67 0 
1055 -0.33101762662555234 0.1336872213578943 -0.0025516231697335634 165 169 170 0.39 58 0 59 0 63 0 64 0 65 0 
1056 0.6876180601707911 0.6979762850211557 0.017945846875608185 179 173 174 0.36 58 0 59 0 63 0 
1057 -0.054862380245086495 0.747578679097884 0.013760186915005912 126 132 143 0.52 58 0 63 0 65 0 
1058 0.5410624699084539 0.08486698033544426 0.004031913602641879 104 100 103 0.4 58 0 63 0 67 0 68 0 
1059 -0.9206627889561696 0.15622135503607854 -0.009845987303783721 139 131 131 0.47 58 0 59 0 64 0 
1060 -0.39039228550226013 0.7604341332139422 0.00621183218094612 140 149 160 0.62 58 0 63 0 64 0 65 0 
1061 -0.06752777735323723 0.16538213425851084 0.0031116653999760935 150 143 141 0.52 58 0 59 0 64 0 
1062 0.16838030189822084 0.15605132864785792 0.004275880942273602 142 126 126 0.85 58 0 59 0 64 0 
1063 -0.10778969224672474 0.17058617683430227 0.001157697099081867 124 122 129 0.85 58 0 59 0 63 0 65 0 
1064 0.4988684515568653 0.0778474091272855 0.0027449677926458804 130 119 117 1.79 58 0 64 0 65 0 67 0 
1065 0.062483353501117556 0.0917893490649706 -0.0006347672209112698 162 160 158 0.69 58 0 59 0 63 0 64 0 65 0 67 0 68 0 
1066 0.14228079007768302 0.09125389212143797 -0.009434832118483172 175 173 162 1.9 58 0 59 0 63 0 64 0 
1067 0.08485048955509633 0.09202623755857986 -0.002430837697197985 142 140 138 0.23 58 0 59 0 63 0 
1068 0.2575227393005781 0.1563798331223703 0.0039675547770294806 112 100 100 0.19 58 0 63 0 65 0 
1069 0.49242944211437933 0.06675382800946478 -0.001554924687912962 166 161 161 0.98 58 0 59 0 63 0 64 0 65 0 
1070 0.4561921771562254 0.06623614734259009 0.0027749738123112877 159 156 153 0.28 58 0 64 0 65 0 68 0 
1071 0.03135245587643398 0.08827870420655337 -0.0004991830178553425 156 147 145 0.83 58 0 65 0 67 0 
1072 -0.13276043265916893 0.09857895468511113 -0.002845291442296949 160 157 157 0.46 58 0 59 0 63 0 
1073 -0.3049040626079452 0.10808202305596692 -0.0028414568148587005 103 104 106 0.79 58 0 59 0 64 0 65 0 
1074 0.31593192280661775 0.701582708511971 0.01145644393741918 136 123 127 0.32 58 0 63 0 65 0 67 0 
1075 -0.8414511386172931 0.7778460127474833 0.0053234073530978865 145 152 153 0.37 58 0 63 0 64 0 65 0 
1076 0.2495895527704035 0.7090644534374624 0.013815677257837056 162 157 156 0.72 58 0 64 0 65 0 
1077 0.15082419142482228 0.7267727176969625 -0.008670157564697245 160 155 156 1.14 58 0 64 0 65 0 
1078 0.17476095396752012 0.07523123863899533 -0.005005676347777932 159 150 140 1.21 58 0 59 0 63 0 65 0 
1079 0.2749914103875579 0.07095804463069083 -0.0007150068219083927 149 137 136 0.79 58 0 59 0 63 0 64 0 65 0 
1080 0.1305685977445421 0.06965422254444048 0.00466224385515801 129 118 119 1.24 58 0 64 0 65 0 
1081 0.4005969924800461 0.06277509470477222 0.0025677618599668772 108 104 107 0.86 58 0 59 0 63 0 64 0 65 0 67 0 68 0 
1082 -0.08202136209425237 0.7219638027660646 0.01100249123387087 136 128 130 0.42 58 0 63 0 64 0 
1083 0.14289140510844 0.17241925016219534 0.005233545013356045 125 119 120 1.79 58 0 59 0 63 0 64 0 68 0 
1084 -0.08069880756070069 0.08545160169127874 -0.013940692694650147 138 132 135 2.06 58 0 59 0 63 0 
1085 -0.33378015048859533 0.09248298034505775 -0.00260730885834759 133 131 130 0.65 51 0 58 0 59 0 63 0 64 0 65 0 67 0 68 0 
1086 -0.4684710242261063 0.10213042529449012 -0.007675398070268846 152 151 151 0.61 58 0 59 0 63 0 64 0 65 0 67 0 68 0 
1087 -1.1063616082578591 0.14144917132471374 -0.016356465308661194 87 93 109 0.64 58 0 59 0 63 0 64 0 65 0 
1088 0.35466688838338123 0.05360249732291966 0.0005545433169336089 163 160 159 0.82 58 0 59 0 63 0 64 0 65 0 
1089 -0.6940926970798429 0.10800801557204404 -0.006193109399838415 102 97 101 0.8 51 0 58 0 59 0 63 0 64 0 65 0 
1090 -0.22578330732103735 0.08683683301320111 -0.0027463509417375853 173 165 163 0.6 58 0 59 0 63 0 64 0 65 0 
1091 -0.3733080236621755 0.09441558130438366 -0.0017621189579559715 143 141 137 0.47 58 0 59 0 63 0 64 0 65 0 
