# 3D point list with one line of data per point:
#   POINT3D_ID, X, Y, Z, R, G, B, ERROR, TRACK[] as (IMAGE_ID, POINT2D_IDX)
# Number of points: 468, mean track length: 4.37
2141 -1.4278059516415544 -0.12452346227234788 0.010447863010863053 115 116 118 0.65 74 0 76 0 77 0 
2142 -1.3708133783972398 -0.134397138571994 0.01454146958158595 107 113 126 0.83 74 0 75 0 76 0 77 0 
2143 -0.8496474450051161 -0.29944596591075556 0.8818729394670617 109 129 69 0.69 74 0 75 0 76 0 
2144 -0.7656950768531158 -0.3108722264509019 0.9085525705403131 155 171 76 0.69 74 0 75 0 76 0 
2145 -0.7706363752500718 -0.3169088878628643 0.9526722678319405 161 181 128 0.83 74 0 75 0 76 0 
2146 -1.3480511051862685 -0.13629886428686125 0.0078768226734561 141 140 140 0.83 74 0 75 0 76 0 77 0 
2147 -1.1099743135064795 -0.20382308961949228 -0.04431587848515946 108 114 120 0.33 74 0 75 0 76 0 
2148 -1.6059344501647574 -0.11193267623415784 0.01328897611411564 67 67 70 0.46 74 0 75 0 76 0 
2149 -1.4877836118610908 -0.159660352168541 0.004927266156265083 74 81 62 0.61 74 0 75 0 76 0 77 0 
2150 -1.3504585407485314 -0.17911113045832455 0.00986104399143467 113 111 105 0.78 74 0 75 0 76 0 77 0 
2151 -1.3153637378932925 -0.18281942193091816 0.006892723322635109 107 101 105 1.39 74 0 75 0 76 0 77 0 
2152 -1.1715871859689853 -0.19508939754286708 -0.047131822273792486 133 149 163 0.54 74 0 75 0 76 0 
2153 -1.5914827684769084 -0.11670447647459352 0.00916963473556333 115 113 111 0.89 74 0 75 0 76 0 77 0 
2154 -1.4585920622046908 -0.13365580132701707 -0.0031116069570004223 108 104 105 0.85 74 0 75 0 76 0 77 0 
2155 -1.428809213749033 -0.1387194337051421 0.008528800031271615 103 98 95 0.83 74 0 75 0 76 0 77 0 
2156 -1.3884340406511808 -0.14327297889112606 0.004619073082491787 134 128 124 0.54 74 0 75 0 76 0 77 0 
2157 -0.7794283017021777 -0.32003950364629247 0.9246197151829457 167 183 119 0.96 74 0 75 0 76 0 
2158 -1.0936353723664283 -0.20294957263004798 0.005128662861002522 101 93 93 0.44 74 0 75 0 76 0 
2159 -0.8479494619246306 -0.31022564257369567 0.8740523744317557 121 132 81 0.46 74 0 75 0 76 0 
2160 -1.5555674361730454 -0.1363746557318326 0.0216152871618724 103 104 104 0.81 74 0 75 0 76 0 
2161 -1.5315044867887404 -0.15229791204039234 0.002841760908388641 78 71 68 0.8 74 0 75 0 76 0 77 0 
2162 -1.6088405452794299 -0.1294422467294662 0.011158816298361105 134 134 134 1.12 74 0 75 0 76 0 
2163 -1.5094842094408636 -0.14214221970241503 0.01416407937335806 122 113 110 0.55 74 0 75 0 76 0 77 0 
2164 -1.2321149533372757 -0.16613351831055287 -0.04825117792785035 118 131 141 0.51 74 0 75 0 76 0 
2165 -1.682215634580763 -0.12159203357365299 -0.06886679466089175 127 136 146 0.48 74 0 75 0 76 0 
2166 -1.4031850894351463 -0.15705390200544098 0.009208900594762955 66 64 59 0.36 74 0 75 0 76 0 77 0 
2167 -1.3887267644092924 -0.15966045146541 0.015092626452467749 107 107 106 0.42 74 0 76 0 77 0 
2168 -1.364055230181614 -0.16220160883810736 0.010543480671485788 106 101 99 0.42 74 0 75 0 76 0 77 0 
2169 -1.7160181513155712 -0.11913898058978577 -0.04036154205420197 137 148 163 0.24 74 0 75 0 76 0 
2170 -1.0097573896883618 0.6082870720437727 0.016830924867643343 130 142 88 1.26 74 0 76 0 77 0 
2171 -0.6643494899107132 0.4884131293521988 0.003862753215405622 92 95 107 0.89 74 0 75 0 76 0 78 0 79 0 82 0 
2172 -1.48642967677703 -0.11566413955253406 0.011861676438095376 107 105 106 0.85 74 0 75 0 76 0 77 0 
2173 -1.6327451308130976 -0.09484767483437691 0.000986368182993378 56 47 54 0.52 74 0 75 0 76 0 
2174 0.2888101771294803 0.49777875714289926 0.0031219673436024397 129 124 126 0.58 74 0 75 0 76 0 77 0 78 0 79 0 80 0 
2175 -1.4507854782784946 -0.1068133980774276 0.0144601437031806 100 98 96 0.74 74 0 75 0 76 0 77 0 
2176 0.17704871378412493 0.45235080201163835 0.0050233367896576064 144 139 139 0.4 74 0 75 0 76 0 77 0 78 0 79 0 80 0 82 0 
2177 -0.9085219464757371 0.4068817672368773 -0.008666597112158708 119 119 119 0.94 74 0 75 0 76 0 82 0 
2178 0.7434287637266698 0.4645065148148503 0.008926305923351726 65 67 75 0.69 74 0 75 0 76 0 77 0 78 0 79 0 80 0 
2179 -1.039158896480267 -0.24065010742742482 0.030233435573355137 103 103 101 0.88 74 0 75 0 76 0 
2180 -0.506974615688797 -0.6625688213510131 0.6790200089366785 74 89 95 1.23 74 0 75 0 76 0 77 0 
2181 -0.9707597280130024 0.360589949959275 0.004421675707477774 148 142 138 0.82 74 0 75 0 76 0 
2182 -1.0790062439273107 -0.5059632373093811 0.648847371726321 38 48 23 0.66 74 0 75 0 76 0 
2183 -1.0206852926617547 0.3202789235007021 -0.0010644025636568303 60 46 49 0.53 74 0 76 0 82 0 
2184 -1.468857945577485 0.2846696995497478 0.009003532967259743 134 121 123 0.66 74 0 75 0 76 0 77 0 
2185 0.8266567540067368 0.28094861808763744 0.02144796664680687 100 116 131 0.61 74 0 75 0 76 0 77 0 78 0 80 0 
2186 -1.3172280988392573 0.24625313092973425 0.024836505861563662 147 144 146 1.51 74 0 75 0 76 0 77 0 
2187 -1.0808006181896277 -0.46819740206725724 0.00946214538957275 74 79 74 0.65 74 0 75 0 76 0 77 0 
2188 -1.1128554819434944 -0.46433392240035704 0.01671475405252029 85 91 93 1.12 74 0 75 0 76 0 77 0 
2189 -1.447029720757537 0.22620208801753702 -0.004060250382661942 149 152 157 0.93 74 0 75 0 76 0 77 0 
2190 -1.570594236845667 0.22516859873282752 0.006957100807097788 144 142 136 0.59 74 0 75 0 76 0 77 0 
2191 -1.2989808124217521 -0.05587547503766949 0.0026290488737666876 34 38 45 0.76 74 0 75 0 76 0 77 0 
2192 -1.4116384172671712 0.21416964593688304 -0.014241004841330427 122 127 131 1.33 74 0 75 0 76 0 77 0 
2193 -1.661698961250154 0.20705735383902302 0.009360447192408297 150 147 143 0.41 74 0 75 0 76 0 
2194 -1.0696843450540077 -0.00893969479222001 0.6820322615116972 77 102 35 1.16 74 0 75 0 76 0 77 0 
2195 -1.3505275404316128 -0.04895823089246706 0.005015315218124789 119 120 119 0.89 74 0 75 0 76 0 77 0 
2196 -1.3105509597031926 0.1870510034133685 0.02005314617810772 128 126 129 0.51 74 0 75 0 76 0 
2197 0.7676952139327837 0.19166771934935076 0.0007213728533329596 122 123 135 0.51 74 0 75 0 76 0 77 0 78 0 79 0 80 0 
2198 -1.64779898813528 0.19387853506158875 0.006339865874251921 92 92 89 0.34 74 0 75 0 76 0 
2199 -1.22102424978197 0.1647574214863314 0.00571780496778618 114 110 109 0.33 74 0 75 0 76 0 77 0 
2200 -1.2394631517756374 0.13186122440913553 0.021853369434853925 119 109 102 0.58 74 0 76 0 77 0 
2201 -1.1010671681593553 -0.39220511795397023 0.022290390064407896 104 111 110 0.92 74 0 75 0 76 0 
2202 -1.2031730094501818 0.1316335592968727 0.008409808037964584 129 125 118 0.39 74 0 75 0 77 0 
2203 -1.344445194090502 0.13881426204963443 0.0012748469415487767 106 98 103 0.56 74 0 75 0 77 0 
2204 -1.296040535532732 0.11106665331966294 0.024385204497665222 105 99 99 0.62 74 0 75 0 76 0 
2205 -1.028923599830653 -0.053584342769795346 0.0167670833843768 111 108 103 0.13 74 0 75 0 76 0 
2206 -0.6407557513779337 -0.21150541535424794 0.7518225614326001 142 164 92 0.92 74 0 75 0 76 0 
2207 1.1421630847399074 -0.0204067968794244 -0.004653973066333678 117 116 118 0.56 74 0 75 0 76 0 77 0 78 0 80 0 
2208 -1.3232053756834259 0.060357307921565496 0.012986994060967247 128 126 128 0.56 74 0 75 0 76 0 
2209 -1.059729990915247 0.03998649197874428 0.005728549320907579 109 105 101 1.35 74 0 75 0 76 0 77 0 
2210 -1.0709198359732224 0.02558084745088954 0.0065728344723213275 143 140 114 0.7 74 0 75 0 76 0 77 0 
2211 -1.1817627116093739 0.028877410405134262 0.010225770817609099 84 66 67 0.44 74 0 75 0 76 0 
2212 -0.8773979227755886 -0.15810264940841484 0.6786966247334123 123 133 91 1.71 74 0 76 0 77 0 
2213 -1.135733177649129 -0.25389845573569464 0.5863918911200439 122 133 82 0.47 74 0 75 0 76 0 
2214 0.6452873379878862 -0.10544943692478846 -0.0015475444830396984 127 131 137 0.39 74 0 76 0 77 0 78 0 79 0 
2215 -1.4463698655694086 -0.15046217494724082 0.01020189591453852 80 78 78 0.35 74 0 76 0 77 0 
2216 -1.0972333948263884 0.00852259800764733 0.008322705686254912 135 132 134 0.35 74 0 75 0 76 0 77 0 
2217 -0.8829553579326737 -0.02457046209346276 0.00880281430119775 121 122 126 0.45 74 0 75 0 82 0 
2218 -1.5748314666574215 0.04991797865205057 0.012838092088642837 110 106 106 1.0 74 0 75 0 76 0 77 0 
2219 -0.4342419219523272 0.5927391446167424 0.00687751693293768 132 116 107 0.66 74 0 75 0 76 0 77 0 78 0 79 0 82 0 
2220 -0.7904792481480974 -0.14879574919934782 0.707659876562098 75 87 50 1.16 74 0 76 0 77 0 
2221 -1.3892427378351266 -0.13268070284712305 0.007374121959739913 125 122 123 1.18 74 0 75 0 76 0 77 0 
2222 -0.9186937507998867 0.5252444331515115 0.009016230226647468 141 152 151 0.44 74 0 76 0 77 0 
2223 -1.0605192911431007 0.4852450438193714 0.004785099367082221 149 190 216 0.68 74 0 75 0 76 0 
2224 -1.5710420843099955 0.011338267451764776 -0.006773528689148369 118 114 111 1.09 74 0 75 0 76 0 77 0 
2225 2.751019006753217 0.9240106984801246 -0.5309553204627169 240 233 238 1.83 74 0 75 0 76 0 80 0 
2226 0.47119823294211194 0.5076243870153487 0.004474315188075257 85 99 105 0.83 74 0 75 0 76 0 80 0 
2227 -0.1169504683331382 0.4758267786790372 0.0020258290001238495 47 38 44 0.64 74 0 75 0 76 0 77 0 78 0 79 0 80 0 82 0 
2228 -1.5671720706320773 0.09414024876385858 0.011125295649553292 111 105 100 0.56 74 0 75 0 76 0 77 0 
2229 -1.3954268628019777 -0.10116222495807625 0.011582780408003838 144 136 129 0.46 74 0 75 0 76 0 77 0 
2230 -0.8013190697015511 0.3996731384424765 0.007756714442602332 147 141 139 0.41 74 0 75 0 77 0 
2231 -0.8181686068730214 -0.5746958148333341 0.8542944738904951 35 49 22 1.12 74 0 75 0 76 0 
2232 -0.9514810750004404 0.3555128177653256 0.011515237823811966 157 159 157 0.62 74 0 75 0 76 0 
2233 0.6792843516053959 0.4487918951606392 -0.002757139390576548 142 133 132 0.65 74 0 76 0 77 0 78 0 79 0 80 0 
2234 0.822377980175925 0.42108990588848344 0.005920165914659394 70 56 62 0.56 74 0 75 0 76 0 77 0 78 0 79 0 80 0 
2235 -0.8023411963143263 0.3504441117631307 0.01136368282557039 154 154 154 0.46 74 0 75 0 82 0 
2236 0.19950553886685796 0.3863743687559339 0.004165419687460459 158 147 142 0.4 74 0 75 0 76 0 77 0 78 0 79 0 80 0 82 0 
2237 -0.7642098004232111 0.34872348495017186 0.00583600393178516 169 166 167 0.32 74 0 75 0 79 0 82 0 
2238 0.5439819526395009 0.3961332733014585 0.00509452968414245 83 81 87 0.55 74 0 77 0 79 0 80 0 
2239 -0.7443676078481503 0.11868766286293143 -0.010767547380735187 144 137 135 1.28 74 0 75 0 79 0 
2240 -0.9977439626763734 0.3385421755887396 -0.0059645081290204596 158 155 156 0.52 74 0 75 0 76 0 77 0 
2241 -0.9769867812420278 0.3315210218671353 0.007974682811327266 139 147 149 0.49 74 0 76 0 82 0 
2242 -1.5796723829068406 0.30114420816300486 0.00901004760342565 53 50 60 0.35 74 0 75 0 76 0 
2243 -0.7034765211425126 0.33790839418451796 -0.022727092097712082 148 145 147 0.96 74 0 75 0 82 0 
2244 -1.5472649565156529 0.14825191758488981 0.01025048188767994 146 139 137 0.92 74 0 75 0 76 0 77 0 
2245 -0.783301871951255 0.12534097805591304 -0.006899924919939456 146 151 153 0.62 74 0 75 0 82 0 
2246 -1.2490365312733898 0.28948081001252096 0.0034480648949693333 62 56 69 0.37 74 0 76 0 77 0 
2247 -0.7646313890925374 0.13589211406746038 -0.006869411501384716 159 159 160 0.83 74 0 75 0 82 0 
2248 0.80409583839119 0.10216861351881242 0.020674761502473243 111 126 137 0.56 74 0 75 0 76 0 77 0 79 0 80 0 
2249 -0.8460780193120959 -0.07788970551475562 0.01009222668221197 138 134 136 0.41 74 0 75 0 82 0 
2250 -1.4881736447087306 -0.060762420473458555 0.015114221952351398 114 115 117 0.84 74 0 75 0 76 0 77 0 
2251 0.6290720486011325 0.26139253796612244 -0.0002734445850074275 134 131 130 0.54 74 0 76 0 77 0 78 0 79 0 80 0 
2252 -1.4427228755226362 0.24498238807561046 0.002351979974865308 148 157 169 0.67 74 0 75 0 76 0 77 0 
2253 -0.9201669992402794 0.16335028240141872 0.018126754963999 82 83 78 0.98 74 0 75 0 76 0 82 0 
2254 -1.2136224102592563 0.23908081784309743 -0.027957457259562713 70 85 126 1.43 74 0 75 0 76 0 
2255 -1.3576983698953213 0.1777327372496004 0.02411691208449675 120 112 106 0.95 74 0 75 0 76 0 
2256 -1.0822904391170411 0.17798898861736515 0.00596970666585298 47 45 45 0.79 74 0 75 0 76 0 82 0 
2257 -1.141807797481894 -0.41739116888320704 -0.04354567676832185 53 68 58 0.59 74 0 75 0 76 0 
2258 -1.3228004739446755 0.20638387814349965 0.012918154925586808 130 128 129 0.43 74 0 76 0 77 0 
2259 -1.5388740587433614 0.1928071289429175 0.0008883116915442199 136 128 123 0.73 74 0 75 0 76 0 77 0 
2260 -1.286737817626595 0.19263643601530886 -0.011007530249435153 133 131 132 1.52 74 0 75 0 76 0 
2261 -0.7962780894830599 0.19103678010574396 0.0119881486628697 116 118 130 0.44 74 0 75 0 79 0 
2262 0.8234276110392327 0.19071078880266892 0.0004254375946030442 65 65 78 0.4 74 0 75 0 76 0 
2263 1.0625292269738864 -0.11481464326072456 -0.017089812868644097 83 76 58 0.96 74 0 75 0 76 0 77 0 
2264 -0.8359352536452512 -0.39795167702746165 0.9469834034028866 57 63 26 0.43 74 0 75 0 76 0 
2265 -0.9797907430341428 0.18128595821124083 -0.0032142923543239063 118 119 122 0.16 74 0 75 0 76 0 
2266 0.6961610369463453 0.20328442573861968 0.011504544327251573 160 153 149 0.15 74 0 79 0 80 0 
2267 -1.373847417101971 -0.04622350710235263 0.00535789399787162 118 111 104 0.17 74 0 75 0 76 0 
2268 -0.9699111431485703 0.23231086054541744 -0.019567610872219813 151 149 148 0.56 74 0 75 0 76 0 
2269 -1.0204155113540727 -0.4741940494215169 0.020114986008705198 42 38 34 1.67 74 0 75 0 76 0 77 0 
2270 1.1057640150211858 0.2730330647511192 -0.04146851336422184 141 177 194 0.24 74 0 75 0 76 0 77 0 78 0 
2271 3.8924346245600607 1.510580091263 -0.8991302250367483 188 177 172 1.37 74 0 75 0 79 0 
2272 -1.4187656756336013 -0.16764645870629089 -0.007206266184156824 115 115 114 1.24 74 0 75 0 77 0 
2273 3.6482706333535804 1.4135581857620687 -0.8455668724999981 252 255 255 1.22 74 0 75 0 79 0 
2274 -1.665899874412763 0.05901681047905616 -0.005449415042946223 151 145 141 1.38 74 0 75 0 76 0 
2275 -1.1728385508485484 0.024869021009183524 0.015363686610701682 149 150 153 0.51 74 0 75 0 76 0 
2276 -0.9452549739832846 0.5551653742401398 -0.0151538589350284 155 155 142 1.33 74 0 76 0 78 0 
2277 -1.3238311220084236 0.14616568579330677 0.01300169306165851 106 102 106 0.38 74 0 75 0 76 0 77 0 
2278 -1.0221996844302799 -0.2846974726930439 0.01970511012640416 78 78 77 0.42 74 0 75 0 76 0 
2279 -1.3090716486453033 -0.13928921428001612 0.0006882706312122614 63 54 56 0.32 74 0 75 0 76 0 
2280 -0.994472184157961 -0.06388943174049855 0.04371028574042461 105 106 106 1.07 74 0 75 0 76 0 
2281 -1.6010247356462122 0.15235912286888934 0.014518085170999864 58 70 90 0.28 74 0 75 0 76 0 
2282 1.2820410746680673 0.35704114923346536 0.056038810843372755 63 61 66 0.22 74 0 75 0 76 0 
2283 -0.83974561376351 -0.6540957899599903 0.6425802192008149 78 100 68 0.31 74 0 75 0 76 0 
2284 -0.6485407811597753 0.5563137237225556 -0.00657175319148201 40 37 44 0.56 74 0 75 0 82 0 
2285 -0.9674484451932247 0.35748023049584077 -0.02822100809640486 143 150 153 1.07 74 0 75 0 76 0 
2286 -1.0176605094983624 0.3368743674073367 0.0013570911616908484 109 106 85 0.57 74 0 75 0 76 0 77 0 
2287 -1.0738257838808098 0.09688796820324212 0.01253228849618836 148 139 138 0.49 74 0 75 0 76 0 
2288 -1.213559121454146 0.10389945178430768 0.013875514228566824 136 134 130 0.76 74 0 75 0 76 0 
2289 -1.4049591177416054 -0.12729978674397086 0.015099997304720506 95 90 83 1.46 74 0 75 0 77 0 
2290 -1.4343456480257244 -0.09318976252945911 0.0008458672366749415 98 98 97 0.65 74 0 75 0 76 0 77 0 
2291 -1.6382108016687578 0.11628504176574654 0.0047698751403674544 111 116 113 0.12 74 0 75 0 76 0 
2292 -1.153780262154181 0.04999794695383559 0.02056309181276622 111 105 105 0.86 74 0 75 0 76 0 77 0 
2293 -1.2926093721552558 0.05964243736791162 0.004781095445421554 122 119 121 1.24 74 0 75 0 76 0 
2294 0.0568990574754818 0.4026940556726425 -0.009571631090289204 111 131 150 1.13 74 0 75 0 77 0 
2295 -0.16023581076519083 0.49567007209683395 0.002770709555777261 141 131 132 0.67 74 0 75 0 76 0 77 0 78 0 79 0 80 0 82 0 
2296 -1.0012188928402044 0.4508109554644879 -0.03236861739452357 61 57 65 0.89 74 0 75 0 76 0 77 0 
2297 0.08014080894513585 0.5247045839459435 0.001120207528685455 138 122 117 0.4 74 0 75 0 76 0 77 0 78 0 79 0 80 0 82 0 
2298 -1.0950240379649618 -0.34821108164661524 -0.0037280025413246307 105 118 95 1.44 74 0 75 0 76 0 
2299 -1.272782025592974 -0.017840907259010174 0.0037547629552015915 120 92 95 0.43 74 0 75 0 76 0 77 0 
2300 -1.26075666362827 -0.022151069981633627 0.015126823484893153 87 66 69 0.76 74 0 75 0 76 0 77 0 
2301 -1.0815618398236866 -0.23441778415375808 0.6848951604769221 97 98 99 0.59 74 0 75 0 76 0 
2302 -1.4717520427212323 -0.14806248981047546 0.02026791755004916 116 112 107 0.64 74 0 75 0 76 0 77 0 
2303 -1.0905532341232709 0.06541990928067577 -0.016096517564589602 137 133 131 0.55 74 0 75 0 76 0 
2304 -1.6218803940380697 -0.025628978297149965 0.01359421583461977 70 56 55 0.55 74 0 75 0 76 0 
2305 -1.446071478999235 0.35498767910621554 0.0049971887828233206 70 60 68 0.88 74 0 75 0 76 0 77 0 
2306 0.850164163830785 0.436481251358327 0.03241531399856416 80 86 89 0.35 74 0 76 0 77 0 78 0 79 0 80 0 
2307 0.25260845607283344 0.5455964647281376 -0.00441287665974449 59 70 78 0.62 74 0 75 0 76 0 78 0 80 0 
2308 -1.0838787556051084 0.09922778732391338 0.009434538420802403 160 158 155 0.84 74 0 75 0 76 0 82 0 
2309 -1.0982677936009297 0.49296855547992857 -0.05404626000157887 150 186 202 0.57 74 0 75 0 76 0 
2310 -1.4467627073292733 0.3165490690725388 0.01158091478823909 142 142 145 0.44 74 0 76 0 77 0 
2311 -0.7368379790092751 0.3315031747848922 0.0018936234091567338 140 137 136 0.8 74 0 75 0 79 0 82 0 
2312 -1.0011561398473332 -0.17029544702530844 0.011837933688888594 121 122 121 0.78 74 0 75 0 76 0 
2313 -1.4406425380976793 0.28076275192271144 0.012580358020667873 97 100 112 0.48 74 0 76 0 77 0 
2314 -0.5983228981977191 -0.7289830434115531 0.7915762416987697 123 148 138 0.3 74 0 75 0 76 0 
2315 -1.2650488077716864 0.18081231498443123 0.015834104903195277 111 107 105 0.59 74 0 75 0 76 0 77 0 
2316 1.079754879724264 0.19347317894818578 -0.030094237290844594 146 181 202 0.25 74 0 75 0 76 0 77 0 78 0 79 0 
2317 -1.0043475118719714 0.1826523595869601 0.03731757280306331 137 136 133 1.29 74 0 75 0 76 0 
2318 -0.8524747492726601 0.6790631142629454 0.034119240707901746 79 92 94 0.61 75 0 77 0 82 0 
2319 -0.7433185032993218 0.680862146618349 0.006745596776715335 96 111 113 1.27 75 0 76 0 77 0 82 0 
2320 -0.8450599417789024 0.6298487260908224 0.0686381472573011 118 118 107 1.23 75 0 76 0 77 0 
2321 -0.6927454542050642 0.6730828400362213 0.006508524365092992 71 86 90 0.61 75 0 76 0 77 0 80 0 82 0 
2322 -0.2945608983521822 0.6721304665844667 0.05411684333114839 75 72 75 0.55 75 0 76 0 77 0 80 0 82 0 
2323 -0.8376516568353793 0.6342544948789912 0.012695075532682752 72 71 76 0.58 75 0 76 0 77 0 82 0 
2324 -0.6975930862767489 0.652808020345699 0.0035065085913375165 109 100 94 0.45 75 0 76 0 77 0 80 0 
2325 -0.5536141560488713 0.6521586961455069 0.006679132249944198 68 69 67 0.99 74 0 75 0 76 0 77 0 80 0 82 0 
2326 -0.9025207182022803 0.6266678728809778 -0.01248740762869447 170 159 141 0.68 75 0 76 0 77 0 
2327 -0.4848346874844796 0.6406819677963281 0.008574107580908473 56 50 54 0.28 75 0 76 0 77 0 82 0 
2328 -0.0543234174056357 0.6202162170189286 0.12250911319155006 74 79 92 1.3 75 0 76 0 77 0 
2329 -0.6358274719377586 0.6237485616695502 0.006978839485551027 117 102 95 0.45 75 0 76 0 77 0 79 0 80 0 82 0 
2330 -0.6177484874046589 0.6222799928206969 0.0061132599380299465 121 106 98 0.31 75 0 76 0 77 0 79 0 80 0 82 0 
2331 -0.45195107184731564 0.6387873834107536 0.005399685453676191 55 55 58 0.55 75 0 76 0 77 0 79 0 82 0 
2332 -0.7985883992236956 0.6019390580377529 0.0071252327694526635 110 108 95 0.25 75 0 78 0 79 0 
2333 -0.7019849792092214 0.6043432828282602 0.00578768373432402 137 126 116 0.59 75 0 76 0 77 0 78 0 79 0 82 0 
2334 -0.5502249449295988 0.6115610319356815 0.006296973550329514 132 123 114 0.57 75 0 76 0 77 0 78 0 79 0 80 0 82 0 
2335 -1.430139310071309 0.5502743235784399 0.004667669931222152 152 149 151 0.35 75 0 76 0 77 0 
2336 -0.5247556699389632 0.6076555438689483 0.006279868870407537 137 126 117 0.42 75 0 76 0 77 0 78 0 79 0 80 0 82 0 
2337 -0.5057625745313282 0.6059848135123456 0.006922258667763445 109 89 85 0.39 75 0 76 0 77 0 78 0 79 0 80 0 82 0 
2338 -0.7060439141776667 0.5907373184953697 0.004257388671201007 141 130 122 0.57 75 0 76 0 77 0 79 0 82 0 
2339 -0.5947650469351956 0.6072546411822002 -0.0098584398186831 140 122 115 0.92 75 0 76 0 77 0 78 0 82 0 
2340 -0.4489557189553933 0.5986007475718749 0.009232055410231641 126 120 121 0.48 75 0 76 0 77 0 78 0 79 0 82 0 
2341 3.3149875697304076 1.3247813611573078 -0.7761488543110833 248 244 245 1.71 75 0 76 0 78 0 
2342 -1.4155641360012932 0.5327792724546824 0.007158211537908599 116 111 103 0.76 75 0 76 0 77 0 
2343 -1.3285190799853943 0.5419412712638022 -0.00864235191970036 145 147 134 0.4 75 0 76 0 77 0 
2344 -0.6778783915626928 0.5734530274322848 0.004112400241949686 128 120 122 0.42 75 0 76 0 77 0 78 0 79 0 
2345 -0.5638918670620954 0.576032358117526 0.007835363726068564 143 129 122 0.54 75 0 76 0 77 0 78 0 79 0 80 0 
2346 -1.4670688132221044 0.5279211166435955 -0.0018792655775472823 135 135 134 0.67 75 0 76 0 77 0 
2347 -0.7224916963610741 0.5646513015281985 0.005151049949265023 89 99 111 0.36 75 0 76 0 77 0 78 0 79 0 82 0 
2348 -0.5017085135909269 0.5783066427224003 0.00498121016439834 132 109 104 0.46 75 0 76 0 77 0 78 0 79 0 80 0 82 0 
2349 -0.4792326714726547 0.5843571299471609 -0.001184314421832763 134 120 116 0.93 75 0 77 0 79 0 82 0 
2350 -1.4433925086171469 0.5250534603026423 -0.0021759953808222245 123 121 121 1.16 75 0 76 0 77 0 
2351 -0.656186433746734 0.5652581557850601 0.006076070952294812 95 97 93 0.55 74 0 75 0 76 0 77 0 78 0 79 0 80 0 82 0 
2352 -0.5350769359367431 0.5747445631037372 0.007527144526103685 131 119 112 0.56 75 0 76 0 77 0 78 0 79 0 80 0 
2353 -0.5178303266290828 0.5730433207023888 0.00852540373228801 128 117 119 0.69 75 0 76 0 77 0 78 0 79 0 80 0 
2354 -0.7381490117262454 0.5556107820622236 -0.0004706592673372088 138 140 151 0.69 75 0 76 0 77 0 78 0 82 0 
2355 -0.6792783639499125 0.5559565825278262 0.0044382044905795 132 114 108 0.44 75 0 76 0 77 0 78 0 79 0 80 0 82 0 
2356 -1.4025266801428367 0.5171129148239262 -0.0018858433517334658 149 142 143 0.56 75 0 76 0 77 0 
2357 -0.5943436074987867 0.5595988307754864 0.003356567837174507 82 77 79 0.59 75 0 76 0 77 0 78 0 79 0 80 0 82 0 
2358 -1.463171641803847 0.5079252562370098 0.0038618815328561747 155 159 165 0.6 75 0 76 0 77 0 
2359 -1.3639982901705843 0.5119528245593626 0.0035799951533859583 141 140 143 0.36 75 0 76 0 77 0 
2360 -1.3163121174250958 0.5103614085845724 0.012074270471375177 70 92 108 0.41 75 0 76 0 77 0 
2361 -0.08689186129365321 0.5851491298170575 0.00850367478512356 49 51 58 0.59 75 0 76 0 77 0 78 0 79 0 80 0 82 0 
2362 -1.3019184071730903 0.5080467130276168 0.009911136795516072 85 79 85 0.56 75 0 76 0 77 0 
2363 -0.7064959883449105 0.5442470608401582 0.003446098509027037 157 153 152 0.86 75 0 76 0 78 0 79 0 80 0 
2364 -1.3847803672345325 0.49665888731379815 0.001813408359177463 148 152 156 0.57 75 0 76 0 77 0 
2365 -0.1868708560186783 0.5644281509073915 0.0035258378185556963 116 103 100 0.3 75 0 76 0 77 0 78 0 79 0 80 0 82 0 
2366 -1.4404659195941951 0.484878069662422 0.009456572765615482 128 123 120 0.5 75 0 76 0 77 0 
2367 -0.7278665745341968 0.5151292465317832 0.00368966872177085 158 155 154 0.38 75 0 76 0 77 0 78 0 79 0 
2368 -1.3106770919790707 0.4896739743014802 2.682770131049996e-05 140 138 137 1.26 75 0 76 0 77 0 
2369 -1.222124697188959 0.48959943310009635 0.0015345377209673376 45 46 59 0.58 75 0 76 0 77 0 
2370 -1.3857459966666374 0.4802677894841767 0.007103876194260814 150 155 163 0.64 75 0 76 0 77 0 
2371 -0.770180279933261 0.5044583728179507 0.006581247680887356 144 138 134 0.8 75 0 76 0 77 0 78 0 79 0 
2372 -0.3663501834464303 0.5248821112361378 0.007332428909962206 161 152 151 0.29 75 0 76 0 77 0 82 0 
2373 -0.4396928178275064 0.5265229300100124 -0.010049728574684601 39 31 35 0.81 74 0 75 0 76 0 77 0 78 0 79 0 80 0 82 0 
2374 -0.18999976860225204 0.5331759989874143 0.005740371233667183 145 133 132 0.82 75 0 76 0 77 0 78 0 79 0 80 0 82 0 
2375 -0.8558108626844708 0.48934405690389965 0.014889593009439537 98 92 88 0.61 75 0 76 0 77 0 79 0 82 0 
2376 -0.7472517711398814 0.4961881024774365 0.011772907460657548 172 169 165 0.78 75 0 77 0 78 0 79 0 
2377 -0.1608311190470352 0.5253845298949518 0.00719424185043176 159 141 134 0.42 75 0 77 0 78 0 82 0 
2378 -1.2243500744182583 0.47363661462126505 0.0005980192610644801 39 44 59 0.39 75 0 76 0 77 0 
2379 -1.0162039176819273 0.4989530696768552 -0.03277251899016227 155 164 179 0.73 75 0 76 0 77 0 
2380 -1.2473745219335752 0.4616576854998473 0.005048342567386657 160 150 147 0.3 75 0 76 0 77 0 
2381 -1.335927112896792 0.44335187886636096 0.031172799654297263 136 133 106 0.33 75 0 76 0 77 0 
2382 -1.225402286603651 0.4629266198568422 -0.0003503242137755851 43 42 56 0.41 75 0 76 0 77 0 
2383 -1.393569626600579 0.45092374478571295 0.0028532765374934257 156 153 153 0.32 75 0 76 0 77 0 
2384 -1.3746826744827132 0.44919427260124367 0.002060732059545326 154 153 153 0.99 75 0 76 0 77 0 
2385 -0.7372412097450322 0.46644750038473703 0.010441264161411891 130 139 146 0.32 75 0 76 0 77 0 78 0 79 0 
2386 -1.42177397366286 0.4386186372254132 0.012037127043401942 149 150 151 0.41 75 0 76 0 77 0 
2387 -1.2695515098196621 0.45223550273041063 -0.016411496010314826 125 123 120 1.41 75 0 76 0 77 0 
2388 -0.7576144039686871 0.45796207631461794 0.005622047982103664 155 153 152 0.5 75 0 76 0 77 0 78 0 79 0 82 0 
2389 0.844569887674046 0.5094504575892259 0.0911186715120636 93 94 103 0.69 75 0 76 0 77 0 78 0 
2390 -1.082695517133791 0.46025053058519916 -0.03766790633039363 173 187 203 0.65 75 0 76 0 77 0 82 0 
2391 -0.9065063297525979 0.44849469337995507 0.0010181512297109153 144 138 135 0.32 75 0 76 0 77 0 
2392 -1.4392329334939031 0.43214488650864963 0.000791157639803042 126 120 120 0.24 75 0 76 0 77 0 
2393 -0.30097618868294745 0.47044112732139864 0.003133491985656427 169 159 154 0.53 75 0 77 0 78 0 79 0 82 0 
2394 -0.1888902242406229 0.4738816580635851 0.005936060906392535 125 117 131 0.42 75 0 76 0 77 0 78 0 79 0 80 0 82 0 
2395 2.6368792999430553 0.9783362248070631 -0.7722602045739385 212 196 193 0.48 75 0 76 0 77 0 
2396 -1.1242227467667472 0.46511576028022666 -0.057038176809404026 91 112 128 0.56 75 0 76 0 77 0 82 0 
2397 -1.339848243154949 0.4193292551683814 0.02216884782494006 155 153 153 0.62 75 0 76 0 77 0 
2398 -1.2303014552666658 0.4333321494011974 -0.0036158609433349035 39 42 54 0.52 75 0 76 0 77 0 
2399 2.718240249989589 0.955412754989195 -0.7424759139564518 219 228 223 0.81 75 0 78 0 79 0 
2400 -1.4038268840429315 0.4178977528655513 0.015574316790317393 140 143 145 0.54 75 0 76 0 77 0 
2401 -0.8392904014482835 0.43748784827972126 0.004824431786360282 154 146 142 0.81 75 0 76 0 82 0 
2402 0.18242395053442825 0.4830488042930672 0.0030391742313909367 131 122 121 0.59 75 0 76 0 77 0 78 0 79 0 80 0 82 0 
2403 -1.3935038904039863 0.41915765706704367 0.006867026804884384 132 131 130 0.4 75 0 76 0 77 0 
2404 -1.282426717205926 0.42280584263946724 0.0036461471990705797 136 138 138 0.26 75 0 76 0 77 0 
2405 -0.925593115118672 0.43268344034302086 0.002315672722136639 145 140 136 0.48 75 0 76 0 82 0 
2406 -0.5563991200525125 0.46212777431707225 -0.03318564981681518 113 135 156 1.46 75 0 76 0 78 0 79 0 80 0 82 0 
2407 -0.31880243791507556 0.4555584093055763 0.005271896055259598 167 153 147 0.52 75 0 77 0 82 0 
2408 -1.3692771778619521 0.41117439853608867 0.018861169187222908 129 124 119 0.53 75 0 76 0 77 0 
2409 -1.1756484628293662 0.450015300089195 -0.05329661719140062 68 84 97 0.36 75 0 76 0 77 0 
2410 -1.3505723686401876 0.4138057179405691 0.00701186390138554 129 128 125 0.46 75 0 76 0 77 0 
2411 -0.6737706082218947 0.43333413023893025 0.004234992685090283 93 95 102 0.43 75 0 76 0 78 0 79 0 
2412 -0.2482055287142533 0.44482103776292553 0.007770745167038101 158 154 154 0.36 75 0 77 0 79 0 
2413 -1.3257359832652533 0.4094564503559825 0.008180925688529949 138 137 137 0.6 75 0 76 0 77 0 
2414 -1.419310629086046 0.4048573142023616 0.010778076806666563 132 135 136 0.39 75 0 76 0 77 0 
2415 -1.3061652201449925 0.40776931071772893 0.008325640587887482 138 136 135 0.53 75 0 76 0 77 0 
2416 0.09624790027918007 0.46001536035407825 -0.009230683741934387 45 39 41 0.95 75 0 76 0 77 0 82 0 
2417 -1.285272254199332 0.40555134497485645 0.00796111963866891 119 116 118 0.36 75 0 76 0 77 0 
2418 -0.7961761668601149 0.4152119244384085 0.006425188912336216 150 147 145 0.34 75 0 77 0 82 0 
2419 0.26745506013787906 0.45803294464054006 0.006952489646560513 181 180 180 0.11 75 0 76 0 78 0 
2420 -1.354090568125503 0.395780985437773 0.016739326025451785 136 134 134 0.63 75 0 76 0 77 0 
2421 -0.42309324917072005 0.4226326193164163 0.006673663732121468 177 171 169 0.3 75 0 77 0 78 0 79 0 
2422 0.547555746484872 0.46870686376319215 0.002121379728366814 131 119 112 0.54 75 0 76 0 77 0 78 0 79 0 80 0 82 0 
2423 0.8360154873238975 0.46368228117590043 0.036443429351615986 118 113 113 0.57 75 0 76 0 77 0 78 0 79 0 80 0 
2424 -1.4418226472430857 0.3986075393501367 -0.0024568441873966855 154 158 162 0.82 75 0 76 0 77 0 
2425 -1.3120132803521665 0.39220947493281905 0.01101103136598583 143 139 139 0.64 75 0 76 0 77 0 
2426 -1.419528985289205 0.390190847235703 0.009247334617646331 138 139 141 0.37 75 0 76 0 77 0 
2427 -0.6967649501055846 0.4065874050641439 0.0020366157127290345 164 163 160 0.59 75 0 77 0 79 0 82 0 
2428 -1.398028638588684 0.39090674993108576 0.004003628294262916 125 123 116 0.41 75 0 76 0 77 0 
2429 -0.3563929052407524 0.414990284093771 0.0049637846201982284 179 169 166 0.65 75 0 77 0 78 0 82 0 
2430 -1.4795324616586811 0.38728708985999494 0.0035392919306674034 136 134 134 0.31 75 0 76 0 77 0 
2431 -1.266474970691068 0.38596397770998186 0.012278207093348068 132 126 126 0.93 75 0 76 0 77 0 
2432 -1.3453833690539736 0.3811919685551253 0.006537684117801808 143 133 132 0.38 75 0 76 0 77 0 
2433 0.3173072426174327 0.4337228436137386 -0.004075466519042857 156 138 137 0.55 75 0 77 0 78 0 79 0 82 0 
2434 -0.4569598586562341 0.4068792690411388 -0.017327162846154768 79 79 97 1.4 75 0 76 0 78 0 79 0 80 0 82 0 
2435 -1.41469488252356 0.3752618755259001 0.009721567920966116 137 133 130 0.45 75 0 76 0 77 0 
2436 -1.3249687010798967 0.3773426638642432 0.006424351009065664 152 148 148 0.54 75 0 76 0 77 0 
2437 0.3468467198850175 0.4256060923765188 0.002350483954167551 166 148 142 0.63 75 0 76 0 77 0 78 0 79 0 80 0 82 0 
2438 -1.3987295705358798 0.3765972483914802 0.0030242367286748726 132 130 128 0.33 75 0 76 0 77 0 
2439 -0.16202478733786055 0.39918314139968303 0.006783032206070699 165 156 154 0.36 75 0 76 0 77 0 78 0 79 0 80 0 82 0 
2440 0.15797814555726755 0.40727661480003224 0.0055962895676342364 157 148 146 0.49 75 0 76 0 77 0 78 0 79 0 80 0 82 0 
2441 -1.4605140664295224 0.3690795906661564 0.0019439329283033261 145 144 139 0.49 75 0 76 0 77 0 
2442 -1.2592923455017089 0.36632599244557146 0.014018595757148892 141 140 142 0.34 75 0 76 0 77 0 
2443 -0.698179480987812 0.371726868539994 0.0060765310113400795 161 160 117 0.3 75 0 77 0 79 0 
2444 -1.4162004495764335 0.35919240154236914 0.00835978076034113 135 133 135 0.5 75 0 76 0 77 0 
2445 0.7476391540191046 0.4145956861938158 0.0011895236101117186 144 127 125 0.39 75 0 78 0 79 0 
2446 0.42088953737282886 0.40058367546244344 0.001095685285758986 91 75 82 0.48 75 0 76 0 77 0 78 0 79 0 80 0 
2447 -1.4741013649178436 0.3520570935957283 0.008458804931200062 148 148 152 0.3 75 0 76 0 77 0 
2448 -1.3527427068306421 0.35033722321586985 0.014327554687641974 120 113 108 0.65 75 0 76 0 77 0 
2449 -0.7203547327426094 0.3633361353620528 -0.004424874265951357 143 140 140 0.6 75 0 79 0 82 0 
2450 0.3295016953593049 0.3825864672892866 0.005005332735106211 170 159 156 0.39 75 0 76 0 77 0 78 0 79 0 80 0 82 0 
2451 -0.6828975122241747 0.35267648493559994 0.006173286756993417 108 111 123 0.46 75 0 77 0 82 0 
2452 -1.4074625945432102 0.3407671641506723 0.015232574306046878 98 93 89 0.19 75 0 76 0 77 0 
2453 0.650106204023202 0.3871235232420335 -0.002408766688936714 83 87 96 0.38 74 0 75 0 76 0 77 0 78 0 79 0 80 0 82 0 
2454 -1.2579799946505315 0.3407863465295531 -0.0002883320828803389 151 151 153 0.26 75 0 76 0 77 0 
2455 -1.3664221253882265 0.3371088725875636 0.0033407042072592773 121 138 141 0.32 75 0 76 0 77 0 
2456 -1.4545024520388263 0.3336939237505642 0.007076523149287429 145 144 144 0.66 75 0 76 0 77 0 
2457 0.136394483665986 0.3477836905366801 0.0035406571278060192 162 156 158 0.45 75 0 76 0 77 0 78 0 79 0 80 0 82 0 
2458 -0.32438072139022606 0.3341548476231259 0.00175224562691946 175 160 153 0.58 75 0 77 0 78 0 82 0 
2459 -1.2452871864258364 0.32384385477692357 -0.003818784427999559 42 47 58 0.39 75 0 76 0 77 0 
2460 -1.0419409981363807 0.3341180897521447 -0.03888246248729122 95 139 177 0.47 75 0 76 0 77 0 
2461 0.3393523538354985 0.3043912770899957 -0.0006531821984449987 167 157 157 0.31 75 0 79 0 82 0 
2462 1.5782633563556216 0.31431104502003987 0.0021949782321665206 143 125 124 0.3 75 0 76 0 78 0 79 0 80 0 
2463 -1.3420042379447352 0.28856718723479885 0.007099102107136296 141 136 136 0.33 75 0 76 0 77 0 
2464 0.2644517658899579 0.2836658593332174 0.010054808304428956 116 121 137 0.53 75 0 76 0 77 0 78 0 79 0 80 0 82 0 
2465 1.5038608571000736 0.3028167892263894 -0.003875245991904686 137 117 114 0.34 75 0 78 0 79 0 
2466 -1.5381474159766702 0.2811264497410971 0.018608381683184044 122 118 116 0.72 75 0 76 0 77 0 
2467 -1.299901820614178 0.278995761411006 0.013169382617462217 137 137 140 0.31 75 0 76 0 77 0 
2468 1.6435749021673478 0.29013244352371903 -0.0010212359282803763 138 115 113 0.35 75 0 78 0 79 0 
2469 -1.566208294305565 0.2773052998452734 0.010590416403385407 112 100 104 0.36 75 0 76 0 77 0 
2470 -1.2260770100673821 0.292238064124877 -0.05228189135416865 77 112 137 0.61 75 0 76 0 82 0 
2471 0.40552326602436706 0.2702498933268719 -0.0019032250484494059 177 189 199 1.06 75 0 76 0 77 0 78 0 
2472 0.5585070691978212 0.2800956517602875 -0.05309243132779988 173 192 207 0.42 75 0 78 0 79 0 
2473 -1.5192127322851097 0.27282793491975177 -0.008785426319902 119 113 108 0.71 75 0 76 0 77 0 
2474 -0.8890975522771042 0.2526919769040557 0.015457092681277452 71 78 77 1.39 75 0 76 0 82 0 
2475 1.585214569775438 0.2588496483368979 -0.0047626222120980884 106 95 95 0.43 75 0 76 0 78 0 79 0 80 0 
2476 -1.3592590856755993 0.2612821149080253 0.000136595077127398 143 140 139 0.64 75 0 76 0 77 0 
2477 1.512104910425111 0.24742457501135817 -0.0019330447072304225 67 39 42 0.27 75 0 78 0 79 0 
2478 1.6309383217030757 0.246769507475266 0.0004836561933756127 102 106 118 0.33 75 0 78 0 79 0 
2479 -1.3877055306495323 0.2525339783412398 0.0029133092642075423 147 148 148 0.7 75 0 76 0 77 0 
2480 -1.0311504321257015 0.24396543898351308 0.001861500699586881 66 60 65 0.76 75 0 76 0 82 0 
2481 0.19524282771038692 0.23657742196974452 0.0019445323375989565 156 156 162 0.87 75 0 76 0 77 0 78 0 79 0 82 0 
2482 -1.5304602064406807 0.2560395232565276 -0.002006148155981274 134 131 133 0.29 75 0 76 0 77 0 
2483 0.41713718089920876 0.2423780896019097 -0.016233128289866134 153 155 172 1.09 75 0 76 0 78 0 79 0 82 0 
2484 1.736899746279992 0.23770364356228732 -0.009507655857202531 55 53 57 0.3 75 0 78 0 79 0 
2485 0.48194719924542806 0.24423082778222813 -0.036937632960767824 164 185 206 0.56 75 0 76 0 77 0 78 0 79 0 80 0 
2486 -1.4867471151914646 0.24731841059678872 0.009215062019957216 148 147 146 0.7 75 0 76 0 77 0 
2487 0.7417860222568392 0.22649538269711383 0.00024371879398276923 158 160 170 0.64 75 0 76 0 77 0 78 0 79 0 80 0 82 0 
2488 -1.1732770868765452 0.2561344735384219 -0.0460866757794176 150 172 193 0.45 75 0 76 0 77 0 82 0 
2489 0.2504664054984581 0.2236439178648066 -0.0006160701482859209 157 153 155 0.35 75 0 76 0 77 0 78 0 79 0 80 0 82 0 
2490 0.8797570333158137 0.22225192764213214 0.00426299558856286 151 139 139 0.46 75 0 76 0 77 0 78 0 79 0 80 0 
2491 0.06524508669093487 0.22090440318590354 -0.011778966022404424 82 77 90 1.34 75 0 76 0 77 0 78 0 79 0 
2492 0.1714029992360353 0.21325875080384868 0.006343905327880001 177 170 167 0.67 75 0 76 0 77 0 78 0 80 0 
2493 -1.3685175185291727 0.23093487387098216 0.006852545022622136 141 135 134 0.5 75 0 76 0 77 0 
2494 -0.8337764763409691 0.21664495553782606 0.007562498797141716 152 152 151 0.72 75 0 79 0 82 0 
2495 -1.4895829241814724 0.22894384698465509 0.012453682552586639 110 108 112 0.46 75 0 76 0 77 0 
2496 0.22293437084689863 0.1954301743874244 0.010105983432908536 141 141 151 0.4 75 0 76 0 77 0 78 0 79 0 80 0 
2497 1.649945100593662 0.20094922140908233 -0.046479288571156255 82 93 97 0.37 75 0 76 0 78 0 
2498 -1.3838285972028914 0.21314438759639445 0.013117087432704021 139 134 135 0.41 75 0 76 0 77 0 
2499 0.06568669826683991 0.18444617183263276 0.002612988512276608 119 118 115 0.84 75 0 76 0 77 0 78 0 79 0 82 0 
2500 -1.4637012419081863 0.21063083875626182 0.007521857870309027 137 141 149 0.61 75 0 76 0 77 0 
2501 0.7582258406120643 0.1684341986874204 -0.00031338756802421614 172 158 153 0.42 75 0 76 0 77 0 78 0 79 0 80 0 
2502 1.6283707744264475 0.15756111109025042 -0.03555616534247113 150 161 175 0.41 75 0 78 0 79 0 
2503 -1.3940076391295009 0.20585380415096882 -0.007919641730406496 121 119 122 0.68 75 0 76 0 77 0 
2504 -1.2091991043386172 0.184444435259337 0.03699977509603327 38 32 25 1.24 75 0 76 0 77 0 
2505 1.3792987415464613 0.1418471467586588 0.003657340446850325 165 159 162 0.53 75 0 76 0 77 0 78 0 79 0 80 0 
2506 1.6652341070002377 0.14420729653289258 -0.019929977109495078 141 159 176 0.79 75 0 78 0 79 0 
2507 -1.1224174989574014 0.18082576101549455 0.012386149675212519 48 39 31 0.5 75 0 76 0 77 0 
2508 0.06100634626597915 0.15183261503624967 0.005529141070367057 97 91 93 0.56 75 0 76 0 77 0 78 0 79 0 80 0 82 0 
2509 1.576328223224581 0.13376392084504707 -0.04086575794326564 146 173 193 0.75 75 0 76 0 79 0 
2510 -1.409999076660744 0.1887466935946996 0.009571081992447546 107 104 104 0.35 75 0 76 0 77 0 
2511 -1.4960960446469243 0.186432679072471 0.007875243866373373 114 111 110 0.43 75 0 76 0 77 0 
2512 -1.4476828406574755 0.18132173837103108 0.00428109211045245 122 122 129 0.39 75 0 76 0 77 0 
2513 0.6094863285324679 0.12480427183134575 -0.0010015523492602236 131 132 134 0.33 75 0 76 0 77 0 79 0 
2514 -1.3941542956123618 0.17237133511890898 0.007142641321132644 124 120 115 0.29 75 0 76 0 77 0 
2515 0.023409009812065906 0.1360641728018447 -0.048796136391839696 100 118 123 1.09 75 0 76 0 77 0 
2516 -1.4851280188158422 0.1666806045299486 0.02028006022673652 130 127 125 0.48 75 0 76 0 77 0 
2517 -1.3098089778851698 0.16010981941022692 0.013918729208557822 137 136 138 0.36 75 0 76 0 77 0 
2518 1.6297083673467618 0.08719425143603064 -0.04066427094347201 149 178 197 0.32 75 0 78 0 79 0 
2519 -1.1363392725733978 0.15329962531920374 0.005050249885013853 130 123 120 1.2 75 0 76 0 77 0 
2520 -0.974608248698351 -0.06729051574398995 0.7171985773810017 88 108 46 1.68 75 0 76 0 77 0 
2521 1.6864394583395668 0.0790644088162337 -0.03480426126696892 178 196 220 0.48 75 0 78 0 79 0 
2522 -1.098077638770519 0.1404615765482201 0.027039060202637646 126 122 119 1.16 75 0 76 0 77 0 
2523 -1.4039873074317606 0.1562657242129679 0.009033958454312168 128 125 129 0.43 75 0 76 0 77 0 
2524 -1.0195191034181668 -0.06314939016126161 0.6932380381905663 68 83 55 1.31 75 0 76 0 77 0 
2525 0.8991453820760181 0.07741046667701977 0.0028470365272674457 145 132 137 0.37 75 0 76 0 77 0 78 0 79 0 80 0 
2526 -1.4758171003240308 0.15282082370522257 0.01643627307232023 116 119 124 0.32 75 0 76 0 77 0 
2527 -1.450040840251564 0.15200445794592748 0.0068331020595816866 126 124 123 0.68 75 0 76 0 77 0 
2528 0.5214448242550103 0.090094928412166 -0.04371611576696354 176 198 219 0.43 75 0 76 0 77 0 78 0 79 0 80 0 82 0 
2529 -1.435221407539051 0.14713759850508323 0.010850448126302445 112 110 114 0.47 75 0 76 0 77 0 
2530 -1.409195668352082 0.1426780003674582 0.01755800877485277 113 116 122 1.24 75 0 76 0 77 0 
2531 0.582142868866776 0.08310844759741937 -0.046801284733492175 148 175 197 0.39 75 0 76 0 77 0 78 0 79 0 80 0 82 0 
2532 -1.3869672736189336 0.14123283122486371 0.012757283985052674 116 117 120 0.49 75 0 76 0 77 0 
2533 -1.4167984005282084 0.1293675630438697 0.01495162176434743 117 113 113 0.49 75 0 76 0 77 0 
2534 -1.0179741831271614 -0.07223901515285898 0.6507218519755724 54 52 23 0.84 75 0 76 0 77 0 
2535 1.6916753714999324 0.005272160373288238 -0.0383699383497514 179 189 212 0.23 75 0 78 0 79 0 
2536 0.3716936898819457 0.046048139848900674 -0.0008341451020152384 113 89 95 0.45 75 0 76 0 77 0 78 0 79 0 82 0 
2537 0.4547756165183263 0.05454152986468601 -0.04258904468236243 170 192 215 0.69 75 0 76 0 78 0 79 0 82 0 
2538 -0.8131275199415463 -0.09099623627342086 0.6717640915907833 89 91 53 0.98 75 0 76 0 77 0 
2539 0.5183858214277527 0.048177068945149226 -0.047639239603318395 177 203 227 0.3 75 0 77 0 78 0 79 0 82 0 
2540 -1.4574700740292144 0.1269551531260839 -0.00803891808834993 113 112 113 0.57 75 0 76 0 77 0 
2541 0.5716682425966175 0.04379720660737261 -0.05249814507504943 66 83 95 0.38 75 0 76 0 78 0 
2542 -1.5173534373080384 0.12269468741724894 0.01350955384576255 39 37 44 0.55 75 0 76 0 77 0 
2543 -0.8935127678620503 -0.09006040586152554 0.6722407451860369 121 133 85 1.33 75 0 76 0 77 0 
2544 -1.4180641369538995 0.11622461057481653 0.0077816638268883185 103 98 102 0.51 75 0 76 0 77 0 
2545 -1.3790048894236515 0.11534715152574733 -0.004447929653995567 116 118 122 1.11 75 0 76 0 77 0 
2546 0.3131632338359411 0.029809937136505475 0.004778141114738832 162 163 161 0.28 75 0 78 0 79 0 
2547 0.7877706912852999 -0.0006432892236084397 0.023352040597103673 103 117 129 0.55 74 0 75 0 77 0 78 0 79 0 
2548 -0.8892830263328891 -0.09782253235818976 0.6693168961487487 134 134 36 1.2 75 0 76 0 77 0 
2549 0.8629834455032117 -0.004406470034673257 0.005300952788048092 174 171 174 0.49 75 0 77 0 78 0 79 0 
2550 -1.435430809282151 0.10393465772947398 0.018774075156390208 118 119 125 0.88 75 0 76 0 77 0 
2551 0.5152993394701229 0.023165554896972102 -0.04841116281203475 183 202 222 0.44 75 0 76 0 77 0 78 0 79 0 82 0 
2552 0.5729922035674971 0.016919422922632595 -0.04944604015990573 109 123 138 0.41 75 0 76 0 77 0 78 0 79 0 80 0 82 0 
2553 -0.824451345416652 -0.11181894121436256 0.6887461987680601 83 85 41 2.0 75 0 76 0 77 0 
2554 -1.57173955413969 0.10910486783303905 0.007634871696575973 119 111 110 0.39 75 0 76 0 77 0 
2555 -1.369761524373307 0.09839226605842996 0.0032595274215414306 125 117 119 0.51 75 0 76 0 77 0 
2556 -1.1711134508673664 0.08556028032289135 0.0008878841743653525 124 118 113 0.44 75 0 76 0 77 0 
2557 -1.5135522340644771 0.10116791340268154 0.013091616737771273 120 118 118 0.4 75 0 76 0 77 0 
2558 -1.492718693426668 0.09691870465481876 0.013082595073177663 119 115 118 0.47 75 0 76 0 77 0 
2559 -1.3496909726187765 0.08734452841657023 0.00845853797288012 122 114 112 0.25 75 0 76 0 77 0 
2560 1.5239111182921714 -0.05567538459954367 -0.031182693722315663 171 174 186 0.57 75 0 76 0 79 0 
2561 0.5867383808465965 -0.01023058908197103 -0.03070932385441011 91 81 103 0.34 75 0 76 0 77 0 78 0 79 0 80 0 
2562 1.116741117405227 -0.03367169052359434 -0.05161298020269051 52 74 89 0.57 75 0 76 0 77 0 78 0 79 0 
2563 -1.4066120226756278 0.08567854796952548 0.014534804415874422 118 113 114 0.4 75 0 76 0 77 0 
2564 0.6058527964897613 -0.02933516173268333 0.005705844299420182 141 145 156 0.47 75 0 76 0 77 0 78 0 79 0 80 0 
2565 1.3794934633205334 -0.06896523476385992 0.006368030750428269 142 132 144 0.18 75 0 76 0 80 0 
2566 -0.6873353837592702 -0.16035319075549098 0.8069664911379414 123 137 69 1.35 75 0 76 0 77 0 
2567 0.34608330192876496 -0.02681501811706306 0.009912651083877563 95 77 70 0.45 74 0 75 0 76 0 77 0 79 0 80 0 
2568 0.8998886520245026 -0.06127697064460798 0.009843359568359245 178 177 188 0.45 75 0 76 0 77 0 
2569 -0.7000743369147194 -0.15875901688181251 0.7749424960727758 188 185 182 0.81 75 0 76 0 77 0 
2570 -1.506748076191866 0.07289787642754765 0.018086197297368403 101 92 90 0.76 75 0 76 0 77 0 
2571 -1.1292941690079425 0.04986140249200583 0.009484955791371109 133 134 132 0.62 75 0 76 0 77 0 
2572 -1.4786970544458915 0.06997933779393178 0.015048046180906147 106 105 110 0.32 75 0 76 0 77 0 
2573 -0.6793744488006013 -0.1692432715540582 0.7937365255873371 146 157 104 0.69 75 0 76 0 77 0 
2574 0.5994255358841774 -0.05896247028860863 0.0056202856637570155 86 81 77 0.63 75 0 76 0 77 0 78 0 79 0 82 0 
2575 -1.5857016423907224 0.07613037679532106 0.006413566405441073 120 114 111 0.47 75 0 76 0 77 0 
2576 0.34161481262869925 -0.06224726909630332 -0.0024085969325176354 170 169 169 1.15 75 0 76 0 77 0 79 0 80 0 82 0 
2577 1.4527397571532945 -0.13194057268607487 0.0031008363000115417 182 184 193 0.33 75 0 76 0 80 0 
2578 -1.5114682991784962 0.05786776443687169 0.010269849340592198 101 101 99 0.59 75 0 76 0 77 0 
2579 -0.6764184854291406 -0.17879222247314466 0.7794181145897052 119 130 99 1.46 75 0 76 0 77 0 78 0 
2580 0.34839631662765974 -0.0693433069743523 0.014061090566527016 150 145 146 0.84 75 0 76 0 77 0 78 0 80 0 82 0 
2581 0.8470606682084214 -0.0960336183265178 -0.00015837187904406237 122 118 106 0.29 75 0 76 0 77 0 78 0 
2582 -1.4828365642635728 0.05221165673155314 0.0179457685098133 119 114 116 0.32 75 0 76 0 77 0 
2583 0.39072620673185193 -0.07314598494538022 0.006748349862196556 143 142 146 0.39 75 0 76 0 77 0 78 0 79 0 80 0 82 0 
2584 0.9489273328294674 -0.110158638627288 0.019634220816249423 97 96 86 1.07 75 0 76 0 77 0 78 0 
2585 -1.4459543569714035 0.04905442875624238 0.011898778865424366 113 110 111 0.38 75 0 76 0 77 0 
2586 -1.5571799027413753 0.0505045950574071 0.0073562638630094825 115 115 116 0.86 75 0 76 0 77 0 
2587 0.7781703162931576 -0.11796724130429186 0.019232554710740698 82 104 118 0.33 75 0 76 0 77 0 
2588 -1.4221982597661815 0.0319404887761501 0.011602652387955588 131 128 123 0.66 75 0 76 0 77 0 
2589 -0.637504519327919 -0.19194703295627877 0.7675887889523549 178 206 199 0.83 75 0 76 0 77 0 
2590 -1.5298219646301816 0.030646005416676485 0.013608898597150443 107 106 103 0.44 75 0 76 0 77 0 
2591 -1.3024816949351194 0.009980546014137164 0.012191807957418177 151 149 156 0.53 75 0 76 0 77 0 
2592 -1.4375486337372037 0.019623069079353628 0.012061603887382573 124 127 135 0.5 75 0 76 0 77 0 
2593 0.5898273762814595 -0.13352742415112875 0.009006415003201332 173 170 170 0.57 75 0 76 0 77 0 78 0 79 0 80 0 
2594 -1.4682513194570415 0.021341279379236116 0.008760240596773506 88 92 93 0.85 75 0 76 0 77 0 
2595 -1.4137993680274685 0.014639320055078738 0.018520972912229584 96 91 94 0.84 75 0 76 0 77 0 
2596 -0.8366952067564007 -0.17562527935436284 0.7006702386428131 40 39 29 1.17 75 0 76 0 77 0 
2597 -1.390842547751039 0.010936138702711509 0.019424747216290995 119 117 115 0.3 75 0 76 0 77 0 
2598 -1.3213528819008697 0.003878700402101509 0.005647594737431929 140 137 135 0.89 75 0 76 0 77 0 
2599 -1.4949834989944755 0.009469918468580174 0.01642733335111041 116 112 116 0.59 75 0 76 0 77 0 
2600 -0.665793626349162 -0.21126378340593885 0.7605161703856707 155 173 88 1.16 75 0 76 0 77 0 
2601 0.3853078819066033 -0.1459425254054408 0.0073113535648651135 173 173 177 0.65 75 0 76 0 77 0 78 0 79 0 
2602 0.8725271200809225 -0.18825819086951964 0.0019360775860662717 124 131 144 0.28 75 0 76 0 77 0 
2603 0.530451027282763 -0.1710520523852978 0.008814197554760522 78 85 99 0.55 75 0 76 0 77 0 78 0 79 0 80 0 
2604 -1.482324280864439 -0.005682290315404248 0.018850880575651843 112 112 116 0.63 75 0 76 0 77 0 
2605 -1.4640205060754432 -0.0075203102671328155 0.018832127341416455 120 118 121 0.51 75 0 76 0 77 0 
2606 0.39976496698925557 -0.1816495280943489 0.01404586682750826 148 147 152 0.51 75 0 76 0 77 0 78 0 79 0 80 0 82 0 
2607 0.3675844626276423 -0.18140237525937833 0.010774070478824975 120 118 129 0.43 75 0 76 0 77 0 78 0 79 0 
2608 0.4907457109886415 -0.19132860811202043 0.0035621623874191716 143 145 151 0.26 75 0 78 0 79 0 
