# 3D point list with one line of data per point:
#   POINT3D_ID, X, Y, Z, R, G, B, ERROR, TRACK[] as (IMAGE_ID, POINT2D_IDX)
# Number of points: 467, mean track length: 4.33
448 0.4706381879906999 -0.34517434037471323 -0.15550614168742327 24 17 17 0.75 27 0 28 0 29 0 32 0 34 0 35 0 40 0 
449 -0.25760693567074344 -0.20851886603859726 -0.1270902433732367 30 21 19 1.15 27 0 28 0 29 0 32 0 34 0 35 0 40 0 
450 1.0720315582765743 -0.7306621388179376 0.0654909515979939 89 78 67 0.51 27 0 29 0 32 0 
451 -0.8140443086395254 -0.10653642629650395 -0.09425312535271957 112 83 81 0.6 27 0 28 0 29 0 32 0 34 0 35 0 36 0 37 0 38 0 40 0 
452 -1.3681434523905527 -0.009316122562310014 -0.09103556339205754 148 121 120 0.28 27 0 29 0 35 0 
453 1.1907703530673626 -0.7280339410751405 0.062235762617186996 101 83 67 0.88 27 0 28 0 29 0 32 0 34 0 37 0 
454 -0.5398153035839802 -0.4444967985687053 0.13692530701264427 91 80 77 0.6 27 0 28 0 29 0 34 0 35 0 36 0 37 0 40 0 
455 0.25809178688757123 -0.35498241054165663 -0.17082790317209207 52 36 30 0.18 27 0 28 0 29 0 
456 0.3390037203373494 -0.6612307231619229 0.03267952373699623 71 64 58 0.39 27 0 28 0 29 0 32 0 
457 0.303698770551713 -0.6915858066248511 0.0069155306995941634 71 64 56 0.14 27 0 28 0 29 0 
458 -1.178173384435293 -0.06056652441573501 -0.08258131778888023 165 157 148 0.19 27 0 29 0 35 0 
459 0.39014131574841976 -0.33997442941569334 -0.12999284550223555 32 23 19 0.67 27 0 28 0 29 0 32 0 
460 1.072132981162088 -0.47195788880819844 -0.16232986460668752 89 64 55 0.4 27 0 28 0 29 0 32 0 
461 0.3570723791521714 -0.36105579383148717 -0.1569752127113917 44 40 37 0.33 27 0 28 0 29 0 
462 0.3181955689907807 -0.3166260977543503 -0.12040867333633976 56 43 38 0.53 27 0 28 0 29 0 
463 0.24396511586053657 -0.670831747546507 0.012480948934618152 61 56 49 0.25 27 0 28 0 29 0 
464 2.0039849710450457 -0.9563219342002982 -0.0265018288365918 112 130 145 0.47 28 0 32 0 34 0 40 0 
465 1.0769728105904859 -0.7068085479638482 0.04636435291092866 104 100 91 0.46 27 0 29 0 32 0 
466 0.8445917435746618 -0.6975647202065811 0.027310768807156216 42 49 45 0.48 27 0 28 0 29 0 
467 0.8252483536677716 -0.8242609503578731 -0.06777224433476614 96 91 84 3.09 27 0 28 0 29 0 32 0 36 0 
468 -0.1098568833397772 -0.2554589616371715 -0.10929626388673264 91 74 65 0.61 27 0 28 0 32 0 35 0 
469 -0.14701682927056411 -0.24083963500861386 -0.09561518426523918 66 43 37 0.7 27 0 28 0 35 0 
470 0.48984247820957727 -0.3618652009706041 -0.13256388792873008 20 15 14 0.6 27 0 28 0 29 0 32 0 34 0 35 0 40 0 
471 -0.9079861846018938 -0.4241698968148739 0.08482353107044915 71 79 61 3.13 27 0 29 0 32 0 
472 0.7965439417066817 -0.08823837772379223 0.19334388932073476 195 176 160 0.24 27 0 28 0 29 0 
473 0.7736116731491168 -0.043297237532833044 0.2328877684122993 136 132 129 1.16 27 0 29 0 35 0 
474 -1.2157318748898227 -0.3711048221304024 0.10579236124190372 191 215 233 0.36 27 0 28 0 29 0 
475 -1.2823165231077422 -0.38391951833838106 0.08655193520892734 173 193 209 2.14 27 0 28 0 29 0 35 0 
476 1.1014217829027015 -0.6841245592168634 0.034948647137653555 145 112 89 0.68 27 0 28 0 29 0 35 0 
477 0.9418708468160045 -0.7389950261993186 -0.01974363189761663 33 30 25 0.55 27 0 28 0 29 0 
478 -0.1839250884078488 -0.5448782286952585 0.03914453334959489 90 88 86 0.52 27 0 28 0 29 0 34 0 35 0 36 0 37 0 40 0 
479 1.1254890071504269 -0.4866174052692518 -0.11993018235762698 89 77 69 0.95 27 0 28 0 29 0 32 0 35 0 
480 0.4562376317315304 -0.3820751604068271 -0.11534451522394706 83 67 55 1.07 27 0 28 0 29 0 32 0 35 0 
481 -1.2753511873301817 -0.07288537182290206 -0.06277150005220766 80 72 80 0.38 27 0 29 0 35 0 
482 0.538016755996331 -0.39144864562729925 -0.11716250431375352 95 75 65 0.78 27 0 28 0 29 0 32 0 34 0 35 0 40 0 
483 0.30553397098488033 -0.3482413477645464 -0.1060729572301482 75 60 49 0.74 27 0 28 0 29 0 
484 0.2752025592584729 -0.3559306788302721 -0.12028285290548735 78 63 52 0.46 27 0 28 0 29 0 
485 -1.3415472524368175 -0.3591781601131479 0.09663597134105928 207 226 243 0.24 27 0 29 0 35 0 
486 -0.2445977320076547 -0.5355777808508825 0.0363374269724569 73 73 71 0.71 27 0 28 0 29 0 34 0 35 0 40 0 
487 0.8885024110370073 -0.7436370714878853 -0.03384322935083517 112 111 105 0.2 27 0 28 0 29 0 
488 0.3861373016151766 -0.6005761747629004 0.030966036859540913 41 49 45 1.03 27 0 28 0 29 0 
489 0.3452303237154644 -0.6355391741348287 0.002634870742722062 73 71 64 0.54 27 0 28 0 29 0 32 0 
490 0.4655332186863774 -0.5989374287332744 0.028152981887000883 45 35 28 0.42 27 0 28 0 29 0 32 0 
491 0.40787583651036097 -0.38089182652914544 -0.11795313522852069 84 72 61 0.77 27 0 28 0 29 0 32 0 
492 -0.175557144961467 -0.25547852793165904 -0.07665371746889116 80 64 58 1.99 27 0 28 0 29 0 32 0 34 0 35 0 37 0 40 0 
493 1.2033854378759872 -0.683891265135534 0.024655878242015317 108 92 76 0.73 27 0 29 0 32 0 34 0 35 0 
494 0.978531025357471 -0.7391645378447833 -0.039375606992491985 23 16 14 0.26 27 0 28 0 29 0 
495 -0.530064847020968 -0.3914503937036329 0.10310363025852498 84 78 75 0.63 27 0 28 0 29 0 34 0 35 0 36 0 37 0 38 0 40 0 
496 1.863183554204379 -0.6515839085235644 -0.14089015563948715 66 38 36 0.46 28 0 32 0 34 0 40 0 
497 0.37115210773941265 -0.38021519485556515 -0.11600742398273367 83 69 57 0.22 27 0 28 0 29 0 32 0 
498 0.3510849178203729 -0.3850149519251607 -0.12458712205979527 75 60 49 0.29 27 0 28 0 29 0 
499 0.1224119967273325 0.03942160169871284 0.24496250414352094 106 110 115 1.06 27 0 32 0 34 0 35 0 40 0 
500 -1.3225970468452386 -0.09059983427944035 -0.046968697257303016 98 85 88 0.36 27 0 29 0 35 0 
501 0.3064712571953472 -0.3353329394342114 -0.06121113623548957 83 71 63 0.33 27 0 28 0 29 0 
502 0.2662589259335825 -0.3829524215856672 -0.11095835261650511 96 80 69 0.17 27 0 28 0 29 0 
503 0.1900011472123921 -0.34746369969413127 -0.09074132007499713 75 60 49 0.4 27 0 28 0 29 0 34 0 35 0 36 0 37 0 38 0 40 0 
504 -0.3656188872379561 -0.22423647369547728 -0.047754283519108376 71 54 41 0.22 27 0 28 0 29 0 
505 -1.0881753937944112 -0.3304940865445907 0.1015960955038483 92 89 94 0.52 27 0 28 0 29 0 32 0 35 0 36 0 38 0 
506 0.40710852665701347 -0.6266976528294906 -0.012537486760719974 35 34 32 0.33 27 0 28 0 29 0 32 0 
507 0.35068046028935285 -0.614131112534247 -0.014606124594282566 70 65 58 0.7 27 0 28 0 29 0 32 0 
508 -0.9849564839012975 -0.14534561486283742 -0.03983060065574762 102 90 88 0.93 27 0 29 0 32 0 34 0 35 0 36 0 37 0 38 0 40 0 
509 0.3109568437506631 -0.41066370359693444 -0.12809918151705502 90 76 63 0.66 27 0 28 0 29 0 
510 -1.1249438359323516 -0.12319030047095714 -0.026338272504406235 125 107 106 0.18 27 0 29 0 35 0 
511 0.5485899762108224 -0.42312590261937627 -0.09703411175581267 92 76 65 0.54 27 0 28 0 29 0 32 0 34 0 35 0 36 0 40 0 
512 -0.8724514514887386 -0.1791667298803894 -0.03422999596934573 106 107 109 0.76 27 0 28 0 29 0 32 0 34 0 35 0 36 0 37 0 38 0 40 0 
513 -0.18932400903522537 -0.2967195359816682 -0.0662499182555798 45 40 39 0.69 27 0 29 0 34 0 35 0 40 0 
514 0.28753295885231933 -0.6095401409102918 -0.017815192169303273 63 58 52 0.39 27 0 28 0 29 0 
515 0.22697376159063226 -0.6160562686610286 -0.030460353098750725 36 35 31 0.18 27 0 28 0 29 0 
516 -0.9351401209564879 -0.3511681176372485 0.08865645225057694 124 116 114 0.84 27 0 28 0 32 0 35 0 36 0 38 0 
517 1.1580549289588151 -0.5210204147769191 -0.08395696738945257 109 81 71 0.84 27 0 28 0 29 0 32 0 34 0 35 0 
518 1.1161458338276555 -0.5184720242928554 -0.08397933156871551 134 132 121 0.43 27 0 28 0 29 0 32 0 
519 1.0372814064975664 -0.5452115989728635 -0.11999792096953443 111 90 74 0.11 27 0 28 0 29 0 
520 0.9979084896967704 -0.5295677099014081 -0.11151031860333838 124 111 95 0.32 27 0 28 0 29 0 
521 0.6862843711161 -0.040519938830695934 0.2933190683826058 154 161 167 0.68 27 0 28 0 29 0 32 0 34 0 35 0 36 0 37 0 38 0 
522 -0.2425494757353703 -0.48717991678562583 0.02572078601590122 68 74 80 1.96 27 0 28 0 29 0 34 0 35 0 40 0 
523 -0.3023778486760502 -0.5062467424391744 0.0012967374059899006 35 34 31 0.52 27 0 28 0 29 0 35 0 
524 0.4319178836736878 -0.6100796820106311 -0.021466908323270584 29 28 26 0.53 27 0 28 0 29 0 32 0 
525 1.0315834483564188 -0.8690649727677333 -0.17540427097482414 69 62 52 2.99 27 0 28 0 29 0 35 0 
526 0.4542376302306652 -0.4466126819571509 -0.08582237531852466 61 57 52 0.53 27 0 28 0 29 0 32 0 
527 0.9053369093460313 -0.6634303037268325 -0.03170218612180453 33 24 17 0.33 27 0 28 0 29 0 
528 0.22403094443119823 -0.5348225232151121 0.0027256533573859487 13 10 8 0.46 27 0 28 0 29 0 
529 0.2408807212355502 -0.019735025140462714 0.27563506652682024 94 80 68 0.39 27 0 28 0 29 0 
530 1.1989350789770474 -0.1796192437775191 0.24716251857625215 143 147 152 1.7 27 0 28 0 29 0 32 0 34 0 38 0 40 0 
531 -1.017774850751261 -0.17713687445187498 -0.011697347983897433 87 82 82 0.71 27 0 28 0 29 0 32 0 34 0 35 0 36 0 37 0 38 0 40 0 
532 1.223423470645204 -0.5510622984647191 -0.06258182811905744 108 83 69 1.33 27 0 28 0 29 0 32 0 34 0 35 0 36 0 40 0 
533 0.3466223573403595 -0.43234029060930546 -0.06582303427618952 71 58 45 0.57 27 0 28 0 29 0 32 0 
534 0.31171488103135336 -0.4167435914939564 -0.06329526235438065 51 43 38 0.39 27 0 28 0 29 0 
535 -0.17693234639837627 -0.5076564372532294 -0.01374983376109462 66 75 87 0.42 27 0 28 0 29 0 
536 -1.1864159897926065 -0.29503426608797556 0.07526952722861158 160 181 195 0.45 27 0 29 0 35 0 
537 -1.2659617234270193 -0.3155811436470797 0.04960959725054104 163 185 206 0.24 27 0 29 0 35 0 
538 -1.3953281967210907 -0.25707859601006766 0.08810461682532467 108 89 86 0.5 27 0 29 0 35 0 
539 -1.1389173809919182 -0.2936996106802978 0.07565852368197323 96 88 89 1.76 27 0 28 0 29 0 32 0 35 0 36 0 38 0 
540 -0.16399441196673212 -0.349014206387258 -0.03429522510627969 54 49 47 0.54 27 0 29 0 34 0 35 0 36 0 37 0 40 0 
541 -0.47452290330656055 -0.2803053065745258 -0.00849098678846838 57 50 52 0.62 27 0 28 0 34 0 35 0 
542 -0.5242607879515812 -0.2889368084686471 -0.0232890443223579 76 69 68 1.01 27 0 28 0 29 0 
543 0.7630616471604738 -0.19023724380508875 0.3206063739374013 122 85 67 0.32 27 0 28 0 29 0 
544 -0.5224688689521941 -0.3581056677151248 0.06932073219493018 111 100 96 0.36 27 0 28 0 29 0 34 0 35 0 37 0 
545 -1.3279993547892197 -0.2987197931720117 0.05006860507995503 168 175 190 0.19 27 0 29 0 35 0 
546 -1.3904712544033366 -0.2957257915360847 0.045606576473326776 177 191 196 0.47 27 0 29 0 35 0 
547 0.19947328465404215 -0.06285293261113573 0.3668276896659398 136 137 139 1.28 27 0 28 0 29 0 
548 0.16504379168772232 -0.03947553724427044 0.3830280583113642 123 128 138 1.95 27 0 28 0 29 0 
549 -0.23092191603809883 -0.4730498128990789 -0.00033163815541592534 80 82 87 0.5 27 0 28 0 34 0 35 0 40 0 
550 -0.3046802360769443 -0.4901453955799946 -0.02239961006808422 48 43 38 0.8 27 0 28 0 29 0 34 0 35 0 
551 -0.9055879624355744 -0.3127055193188319 0.05861528459957921 63 70 77 0.74 27 0 28 0 29 0 32 0 34 0 35 0 36 0 37 0 38 0 
552 -1.2154383667146484 -0.1734132624812708 0.01899232980698984 36 26 22 0.52 27 0 29 0 35 0 
553 -0.8348516410796777 -0.23368745163638222 -0.004737138931496632 109 96 90 0.78 27 0 28 0 29 0 32 0 34 0 35 0 36 0 37 0 38 0 40 0 
554 0.2173579246324287 -0.11119191599179157 0.3210909125108824 162 161 153 0.28 27 0 28 0 29 0 
555 -0.9553406849591858 -0.30818459573617246 0.05703647193075867 108 93 91 0.64 27 0 28 0 29 0 32 0 34 0 36 0 37 0 38 0 40 0 
556 0.4615085344882336 -0.5515690715821306 -0.0158171202606624 30 24 19 0.54 27 0 28 0 29 0 32 0 
557 1.095437397045729 -0.6196664953562221 -0.01624649479647311 75 72 67 0.82 27 0 28 0 29 0 32 0 34 0 35 0 
558 0.38592603804379677 -0.4663845083339996 -0.0541160801898648 56 40 31 0.31 27 0 28 0 29 0 32 0 
559 -1.1450710814386025 -0.19295027415184457 0.01575889882659598 80 53 42 0.37 27 0 28 0 29 0 35 0 
560 1.1757173154743752 -0.2688117620604722 0.2741611764312438 123 132 139 0.48 27 0 32 0 34 0 
561 -0.4361257329265754 0.06318977397444014 0.33395433124927043 115 100 102 0.33 27 0 28 0 29 0 
562 -1.388993501202952 -0.20734668557443187 0.004294093740453753 96 75 86 0.53 27 0 29 0 35 0 
563 -0.8486782780149315 -0.25699315373777304 0.012809355797001598 55 49 44 0.5 27 0 28 0 29 0 32 0 34 0 35 0 36 0 37 0 38 0 40 0 
564 -1.3237597843128293 -0.27338883381926776 0.023081905968889482 189 215 227 0.31 27 0 29 0 35 0 
565 0.2246152753036526 -0.4891732521150364 -0.012160489302038946 67 55 45 0.35 27 0 28 0 29 0 
566 -0.30055728086814215 -0.36987756907684066 0.010365156842889633 68 54 46 0.88 27 0 28 0 29 0 34 0 35 0 
567 -0.8430872951764675 -0.3150093870625517 0.0073741624078284 64 55 61 0.82 27 0 28 0 29 0 34 0 35 0 36 0 37 0 38 0 
568 -0.8472052831392068 -0.2889285815254618 0.024030983757075797 98 94 91 0.33 27 0 28 0 32 0 
569 -1.2522491292005073 -0.25640893653267816 0.01060742159319683 192 208 223 0.28 27 0 29 0 35 0 
570 1.0999178559055247 -0.5875192990907443 -0.03451355819572155 99 87 73 0.96 27 0 28 0 29 0 32 0 34 0 35 0 
571 -1.376123308423784 -0.23824009641455512 0.00903936283819895 99 127 133 0.25 27 0 29 0 35 0 
572 0.15892610324538686 -0.4694639200592834 -0.005420842532197989 27 24 22 0.76 27 0 28 0 29 0 34 0 35 0 36 0 37 0 38 0 40 0 
573 -0.38683928956600666 0.05896502718556401 0.37433733779880385 158 163 168 1.75 27 0 29 0 34 0 35 0 36 0 37 0 40 0 
574 0.3753429631618208 -0.5164082248895204 -0.03373640437184966 48 32 26 0.2 27 0 28 0 29 0 32 0 
575 -0.2046751127822762 -0.39347304561767044 0.007531580541379146 31 22 18 0.73 27 0 28 0 29 0 34 0 35 0 40 0 
576 -0.5132636636110534 -0.3182414328758517 0.0463921605244898 100 91 88 0.43 27 0 29 0 34 0 35 0 36 0 
577 -0.14705007301525666 -0.4039888713209396 0.00874983457980838 27 20 17 0.44 27 0 28 0 29 0 34 0 35 0 36 0 
578 0.4668635662692736 -0.5262329379179573 -0.02961766426336787 72 56 44 0.52 27 0 28 0 29 0 32 0 
579 0.6744223908146574 -0.10725063063506268 0.3433720014334277 156 163 169 0.61 27 0 28 0 29 0 32 0 36 0 38 0 
580 -1.3790370370600735 -0.2628209312770432 0.020835677998015556 77 103 109 0.51 27 0 29 0 35 0 
581 0.7676524579320374 -0.1719086964935052 0.30457342600210524 155 127 102 0.37 27 0 28 0 29 0 
582 -1.4092791616035347 -0.2591416306968938 0.02823780013662147 146 129 132 0.25 27 0 29 0 35 0 
583 1.2006007453092515 -0.587323206284729 -0.046230298496225175 115 106 97 0.55 27 0 28 0 29 0 32 0 35 0 
584 -1.2175501120006138 -0.24139954596399765 0.0046919106930466414 117 120 140 0.52 27 0 29 0 35 0 
585 -0.9361682065159053 -0.25749502908095795 0.021507282004412986 115 108 106 0.56 27 0 28 0 32 0 34 0 35 0 37 0 
586 -0.5056065029922235 -0.2771165658172007 0.025989964213362415 70 61 60 1.39 27 0 28 0 29 0 35 0 
587 -0.48325666371950204 -0.31446602985319205 -0.0027718028465388844 63 49 47 1.18 27 0 28 0 34 0 35 0 37 0 
588 -0.14685385159441186 -0.3734938140039985 -0.018861896330724992 82 70 60 0.45 27 0 28 0 34 0 35 0 36 0 37 0 
589 -1.0761408616015842 -0.27428459528296795 0.059848165001810893 135 125 124 0.53 27 0 28 0 32 0 
590 -0.3229613189897821 -0.46831926240212496 -0.030880189992672613 21 15 12 0.46 27 0 28 0 29 0 
591 0.18633772981570118 -0.4925482768318191 0.0009224797310255495 53 40 30 0.31 27 0 28 0 35 0 
592 0.4171276084971681 -0.5480156417297116 -0.017570808841823826 31 22 16 0.51 27 0 28 0 29 0 32 0 
593 -1.2878588299361091 -0.1700539738691989 0.012368361256894667 39 29 26 1.07 27 0 29 0 35 0 
594 0.12308557295370404 -0.09441831078116752 0.33137380231639846 138 143 148 0.56 27 0 28 0 29 0 
595 -1.159506757962438 -0.1657725068565047 -0.009929018814952006 130 123 121 0.51 27 0 29 0 35 0 
596 0.49587562485143577 -0.4767433600289136 -0.10499609955748468 93 90 84 0.57 27 0 28 0 32 0 35 0 
597 0.2694169656002193 -0.5427020756544044 0.0021745450289968327 20 13 12 0.48 27 0 28 0 29 0 
598 0.47200883004244387 -0.5853906402198774 -0.010213674601508793 56 48 38 1.68 27 0 28 0 29 0 32 0 
599 0.7547269437510408 -0.0920184437456717 0.2599632747511885 182 187 185 0.36 27 0 28 0 29 0 
600 -0.13281671344729315 -0.37113428364213985 -0.09218129224438021 77 61 55 2.72 27 0 28 0 32 0 34 0 
601 -0.40861363508259085 -0.4065497601266057 0.06966857307840402 75 64 56 0.51 27 0 28 0 29 0 
602 0.39465949962041336 -0.42014059553228855 -0.08397966732686946 74 59 48 0.31 27 0 28 0 29 0 
603 0.9828897258919357 -0.6900298751135205 -0.023680494573511734 94 79 61 0.42 27 0 28 0 29 0 
604 -0.3781734370912533 0.03185570457414366 0.42973667575209495 162 171 178 0.68 27 0 28 0 29 0 34 0 35 0 36 0 37 0 38 0 40 0 
605 0.6720305962744062 -0.1770750212165802 0.3517764987448856 131 135 140 1.56 27 0 28 0 29 0 32 0 36 0 38 0 
606 1.1538700586811026 -0.6699804157053415 0.01679097626882886 122 98 85 1.29 27 0 28 0 29 0 32 0 34 0 35 0 
607 -0.8398206992217695 -0.1911209789955473 -0.037796347324043356 105 101 103 0.65 27 0 28 0 29 0 32 0 34 0 35 0 36 0 37 0 
608 -0.49522312918771816 -0.2257700794023614 -0.02375230395614003 70 59 58 0.68 27 0 28 0 29 0 34 0 35 0 36 0 37 0 38 0 
609 -0.09735667647712523 -0.30840789355730364 -0.07379544858038989 57 49 45 1.49 27 0 28 0 32 0 34 0 35 0 36 0 37 0 
610 -0.8168666879490489 -0.18560341444737155 -0.05007980797346401 133 120 116 0.57 27 0 28 0 29 0 32 0 34 0 35 0 36 0 
611 -1.0779652977212375 -0.1365362885779765 -0.03095380009092763 128 117 111 1.05 27 0 29 0 32 0 34 0 36 0 37 0 38 0 40 0 
612 0.32857094504101536 -0.4050645803845446 -0.11821486290927663 73 56 48 0.41 27 0 28 0 29 0 
613 -1.2913211815342038 -0.35469057227665357 0.0638913305298191 106 128 143 0.64 27 0 29 0 35 0 
614 -0.9820130173847138 -0.3443208888761177 0.09098874635333953 92 94 95 0.66 27 0 28 0 29 0 32 0 34 0 35 0 36 0 37 0 38 0 40 0 
615 -0.3301188683927966 -0.45024294186528513 0.0610647244550091 44 36 34 0.54 27 0 28 0 29 0 
616 -1.2271385288117032 -0.3551918517720637 0.07075162038713478 113 119 124 1.38 27 0 28 0 29 0 
617 -0.4873843752316339 -0.1934134234539146 -0.03695468642198074 100 92 88 0.5 27 0 28 0 29 0 34 0 35 0 36 0 37 0 38 0 40 0 
618 0.23028325712380462 -0.38553880015401315 -0.11875294700471717 79 57 51 0.46 27 0 28 0 29 0 
619 0.25158475370036104 -0.3794677794596247 -0.11051509315453278 90 76 66 0.12 27 0 28 0 29 0 
620 1.2723970438229595 -0.13387422386307207 0.24395512540579645 122 122 123 0.9 27 0 28 0 32 0 34 0 36 0 
621 0.4993177163651882 -0.40051558998570846 -0.12408164919945674 72 56 46 0.67 27 0 28 0 29 0 35 0 
622 -0.23790952826530118 -0.2689435489191655 -0.08940203911710443 62 54 52 1.35 27 0 28 0 32 0 34 0 35 0 
623 0.6864258405912141 0.7865199689444964 0.2575622804748995 115 81 76 0.43 27 0 28 0 29 0 
624 -1.3219298708326408 -0.37933664799344885 0.08450271771829299 139 166 195 0.44 27 0 29 0 35 0 
625 -1.015150747191181 -0.11394497572040213 -0.056708447607344725 84 75 79 0.86 27 0 28 0 29 0 32 0 34 0 35 0 36 0 37 0 38 0 40 0 
626 -1.0505503370966531 -0.10382311043096049 -0.06231793234084004 117 108 103 0.76 27 0 28 0 29 0 32 0 34 0 35 0 36 0 37 0 38 0 
627 0.40161779156410415 -0.6528185068047451 0.0010955072014817713 32 35 34 0.61 27 0 28 0 29 0 32 0 
628 -0.1469019098890784 -0.26434580088766507 -0.11333349086528288 67 47 40 1.24 27 0 28 0 29 0 32 0 34 0 36 0 
629 -0.3383376984875509 0.20333274783110977 0.3084061021855252 170 180 190 0.42 27 0 28 0 34 0 35 0 36 0 38 0 
630 -1.1412368104315098 -0.367795704785949 0.13636544787377158 156 146 139 0.9 27 0 32 0 36 0 38 0 
631 -1.3052368501924798 -0.02910743708289998 -0.07690445073967744 149 128 116 0.33 27 0 29 0 35 0 
632 0.5364482353594175 -0.3651952243000806 -0.13332726329860234 87 71 60 0.65 27 0 28 0 29 0 35 0 
633 -1.1089580073787904 -0.39108938135912247 0.1418659301659405 136 130 125 0.65 27 0 28 0 29 0 32 0 34 0 35 0 36 0 37 0 38 0 
634 0.48744717725205233 -0.6570618831262306 0.058900120755659535 36 29 22 0.45 27 0 28 0 29 0 32 0 
635 1.1555326984784466 -0.7504880887886601 0.043351778720133405 141 129 117 0.37 27 0 29 0 35 0 
636 -0.9010144947613429 -0.0826432419425347 -0.09259469559556288 91 89 87 0.98 27 0 32 0 34 0 35 0 37 0 38 0 
637 -0.18085823685276461 -0.22579657450464719 -0.12375157594620922 52 34 29 0.68 27 0 28 0 29 0 32 0 34 0 35 0 40 0 
638 -1.1356184307902708 -0.3945953597496227 0.1591298261417612 143 121 115 0.39 27 0 28 0 32 0 34 0 36 0 
639 -1.2047979438529661 -0.01757664187969754 -0.0872729949747596 179 172 161 0.82 27 0 29 0 35 0 
640 -1.1051229327897651 -0.03939769818692013 -0.08742659853224277 142 127 120 0.71 27 0 29 0 35 0 
641 1.184200020493629 -0.3285677850111637 0.36494030157513435 154 160 169 0.95 27 0 28 0 29 0 
642 0.9546802125220577 -0.5553083432676832 -0.31173144264928576 106 113 120 1.52 27 0 28 0 35 0 
643 0.3282253623243103 -0.7335100230247521 0.02241566395828498 60 51 44 0.51 27 0 28 0 29 0 
644 -1.4200513958565713 0.037441640846040625 -0.10359093017152121 131 121 125 0.49 27 0 29 0 35 0 
645 -0.18645910613585157 -0.22318411187874887 -0.16019804610803534 56 51 47 3.21 27 0 28 0 29 0 32 0 34 0 35 0 
646 0.23205269278940638 -0.2764484590737999 -0.1487246642833211 88 77 70 0.59 27 0 28 0 35 0 
647 1.140438668879768 -0.5147731858809873 -0.2467294741594659 60 51 43 1.46 27 0 28 0 29 0 
648 -0.12323362321470263 -0.2471176672250316 -0.18577219933493094 76 80 82 0.37 27 0 28 0 29 0 
649 0.288540246855435 0.878571057626129 0.26629137251668566 116 84 83 0.47 27 0 28 0 29 0 
650 0.7207351742121446 0.7519580873259657 0.2220938638280413 126 84 80 0.33 27 0 28 0 29 0 
651 0.19639964278924243 0.9184612203445905 0.29812457017862404 94 62 60 0.39 27 0 28 0 29 0 
652 1.1942333709391737 -0.42382876130658415 -0.168203083330018 105 67 58 0.52 27 0 28 0 29 0 32 0 
653 0.9982196996459692 -0.5405569963695314 -0.33735953442941524 119 124 126 2.05 27 0 29 0 35 0 
654 -0.25181589561352324 -0.16170045534147215 -0.15202338129759174 39 33 29 0.44 27 0 28 0 29 0 32 0 34 0 
655 -0.8598037535886197 -0.04685118167858632 -0.13156117676484558 160 161 166 0.71 27 0 28 0 32 0 34 0 
656 0.7395719831030542 -0.26997222377295604 0.41130284757718727 164 136 116 1.08 27 0 32 0 36 0 
657 1.0617566167186872 -0.7528680267247867 0.09555571150917574 76 64 53 0.93 27 0 28 0 29 0 32 0 35 0 
658 1.1914290198685282 -0.8242958623441091 0.056670400322267445 139 112 100 0.46 27 0 28 0 29 0 
659 -0.18044254095176968 -0.2110295635022384 -0.19448657571911332 109 118 123 0.48 27 0 32 0 35 0 
660 1.1720988225169462 -0.40027534261420566 -0.18406868028083245 100 74 63 1.02 27 0 28 0 35 0 
661 -0.11467312017609824 -0.2094538711615665 -0.21080977384567268 122 133 145 0.35 27 0 32 0 34 0 
662 -1.204379985755974 -0.0024692948577305085 -0.18007647134733185 87 106 114 0.26 27 0 29 0 35 0 
663 1.1889348105333457 -0.39352331013713265 -0.18885617638528784 119 95 85 1.18 27 0 28 0 29 0 32 0 34 0 35 0 40 0 
664 -0.456669970980759 -0.04815950697120752 -0.130672192852072 101 95 95 1.39 27 0 28 0 35 0 
665 0.1961423653754849 0.8660551524106359 0.2194582303244964 98 78 78 1.1 27 0 28 0 29 0 32 0 
666 0.05579507930213398 0.9059022444254927 0.22905146074658023 101 78 79 0.93 27 0 28 0 29 0 32 0 
667 1.2135506538893934 -0.059496392253017394 0.12403168384709573 102 100 102 1.22 27 0 28 0 29 0 32 0 36 0 
668 1.220610971030882 -0.8877355168605408 0.05096190798524802 95 67 50 0.48 27 0 28 0 29 0 
669 0.40781668090700807 -0.7315675267694952 0.11436651949323362 17 11 8 0.52 27 0 28 0 32 0 
670 -0.27320474636299996 -0.6730345686931387 0.15088685654185385 57 50 43 0.45 27 0 28 0 29 0 34 0 35 0 40 0 
671 -0.2809788039131367 -0.08343097269454458 -0.19156810424698278 46 43 44 0.67 27 0 28 0 29 0 32 0 38 0 
672 -1.325461360013347 0.11679110252381719 -0.1761948154463494 115 110 104 0.31 27 0 29 0 35 0 
673 -1.1319074001951364 -0.5295029130923137 0.22617353183700228 142 135 129 1.18 27 0 28 0 32 0 34 0 35 0 36 0 37 0 38 0 40 0 
674 -0.3654089380478146 -0.047922695702698914 -0.19934208705735235 73 53 50 1.27 27 0 28 0 29 0 
675 0.14960341519525358 0.18492788803117388 0.15872958726574116 107 119 129 0.71 27 0 32 0 35 0 
676 0.5961697163507937 -0.23008408967530106 -0.21569339267763532 91 68 58 0.31 27 0 28 0 29 0 35 0 
677 0.5401514848173117 -0.22760910563420939 -0.24096835283328322 91 86 81 0.07 27 0 28 0 35 0 
678 0.7285492762821859 0.11926508728889312 0.18743902660341905 146 151 157 0.92 27 0 28 0 29 0 32 0 35 0 36 0 38 0 
679 -0.960315644713566 0.092528514484301 -0.18235289840487112 126 117 115 1.64 27 0 32 0 34 0 35 0 37 0 40 0 
680 -0.3504890616182993 -0.6778462656995561 0.17666236280651904 34 25 21 0.34 27 0 28 0 35 0 
681 -0.9356032094981609 0.05067851802230494 -0.2447827269925419 125 120 124 2.5 27 0 32 0 34 0 36 0 
682 0.8265545217229829 -0.9419273194984377 0.07352351562607407 26 26 22 0.41 27 0 28 0 29 0 
683 0.9199777778630707 0.6176081745802862 0.09597014724815944 163 150 156 0.49 27 0 28 0 29 0 
684 1.2577710364966583 -0.3105952899355735 -0.24594911363663163 86 71 66 0.63 27 0 28 0 29 0 32 0 35 0 
685 -0.27029319896806614 -0.049389707411631456 -0.26826300757692345 80 71 62 0.27 27 0 28 0 29 0 
686 -0.3363269624816684 -0.030034660765332677 -0.25874221567734146 98 78 60 0.44 27 0 28 0 29 0 
687 -1.5801096393152492 -0.5110278279017155 0.2847186304829311 93 79 82 0.25 27 0 29 0 35 0 
688 0.6535599112691252 -0.34756268652008604 0.45834388120764114 144 148 148 2.01 27 0 28 0 29 0 32 0 36 0 38 0 
689 -0.9496810758089366 0.11820351233405307 -0.225253629079734 123 113 109 1.46 27 0 28 0 29 0 32 0 34 0 35 0 36 0 
690 0.4643734607866229 -0.78402220282355 0.18321623534221854 41 27 18 0.46 27 0 28 0 29 0 32 0 
691 1.2550904322831302 0.03223388739025035 0.12780419740719362 117 114 115 1.12 27 0 28 0 32 0 34 0 36 0 38 0 
692 -1.4847639276355624 0.22926144498522327 -0.22562704551534607 105 71 69 0.3 27 0 29 0 35 0 
693 0.5220479744907658 0.7172201471484199 0.1255100693291863 99 74 70 0.14 27 0 28 0 29 0 
694 1.2401173036183377 0.0262252083318793 0.11355355935030087 114 113 112 1.14 27 0 29 0 32 0 34 0 36 0 38 0 40 0 
695 -1.0637734285535279 -0.6011961226548085 0.27406677085035025 118 104 98 0.6 27 0 29 0 32 0 34 0 35 0 36 0 40 0 
696 0.5560402307339342 -0.19691259640874065 -0.3092107314985816 125 113 106 0.3 27 0 28 0 29 0 
697 1.1238918499607342 -0.9111827841609197 0.15970714561551158 121 94 74 0.22 27 0 28 0 29 0 
698 0.3065166493035526 -0.126741047203419 -0.28967287716848233 51 28 23 0.41 27 0 28 0 29 0 
699 -0.11700637177756598 -0.06867129265542748 -0.301026511674077 142 157 169 0.63 27 0 28 0 35 0 
700 0.5962204321050909 -0.4042075134232611 0.4569967415778674 115 129 140 0.49 27 0 29 0 32 0 
701 -0.852405158627438 0.1340765366489748 -0.2500051305320943 126 119 118 0.96 27 0 32 0 34 0 
702 -0.8121213740763729 0.12254532780621119 -0.2511914639335635 118 112 116 0.72 27 0 28 0 29 0 32 0 34 0 36 0 37 0 38 0 40 0 
703 1.1594471538408668 -0.9331402828255274 0.16425655919925586 130 112 99 0.54 27 0 28 0 29 0 
704 0.5068486843262682 -0.20742514293803033 -0.35966531513620204 28 22 21 3.52 27 0 32 0 38 0 
705 -0.08276118982854816 -0.05808670568511248 -0.32303271254921495 110 125 136 0.53 27 0 28 0 32 0 34 0 36 0 37 0 
706 0.9861702977711767 0.5844510066262072 0.08998515837527588 12 11 11 0.22 27 0 28 0 29 0 
707 0.7601686711726217 0.6557996023571824 0.1084283974247452 29 27 26 0.23 27 0 28 0 29 0 
708 1.2363414578083132 -0.2535282192710354 -0.2846605514177525 129 103 94 0.92 27 0 29 0 32 0 35 0 
709 -0.40442088640144247 0.07665114383614047 -0.23776527087512456 84 66 64 0.53 27 0 28 0 34 0 35 0 36 0 37 0 38 0 
710 0.2669470804537768 -0.09316864406551845 -0.313394508489688 124 115 107 0.2 27 0 28 0 35 0 
711 -0.27349540969688 0.9553057801754385 0.21938300572179348 83 40 42 0.58 27 0 29 0 32 0 34 0 35 0 36 0 
712 0.5379816368902381 -0.14828774715539272 -0.31417355172261463 32 21 21 0.25 27 0 28 0 29 0 
713 0.5844826903511895 -0.14421523589269364 -0.29495699330675607 140 127 115 0.73 27 0 32 0 35 0 
714 0.3332947744587409 -0.10908861027927158 -0.30951867949234824 49 31 29 0.34 27 0 28 0 29 0 
715 0.7412211088526389 0.18436115666031327 0.13735788752544942 146 151 157 0.74 27 0 28 0 29 0 32 0 34 0 35 0 38 0 40 0 
716 -1.294010004673455 0.249809622748437 -0.26650754553009404 84 71 67 0.42 27 0 29 0 35 0 
717 -0.07737219363230938 -0.033379050246179154 -0.33967022323955454 132 146 153 0.41 27 0 28 0 29 0 32 0 35 0 36 0 
718 0.5423339166771031 -0.12681515984671382 -0.30863479808700167 48 39 39 0.74 27 0 28 0 29 0 32 0 34 0 
719 -0.10361655222627694 -0.038236369674086335 -0.34744781425618665 66 97 106 0.52 27 0 28 0 29 0 32 0 34 0 
720 1.1749338972109173 -0.933865704549468 0.20059151678676435 76 59 35 1.0 27 0 28 0 35 0 
721 0.49129290590575614 0.7378913278532451 0.19265200023081086 19 18 17 4.42 27 0 28 0 29 0 32 0 
722 0.5122991827599046 0.6830196764958869 0.08444819956745742 19 19 16 0.17 27 0 28 0 29 0 
723 0.5398953397063089 0.672240227847317 0.07556470381489344 14 13 11 1.02 27 0 28 0 29 0 
724 -0.21716744083705278 0.9150067200814944 0.16899943128481631 93 64 65 1.99 27 0 28 0 32 0 34 0 35 0 
725 -0.22564343410318147 0.37278666897577684 0.09557758027989138 87 87 86 1.08 27 0 32 0 34 0 35 0 36 0 37 0 
726 0.22197216245724408 0.3156761194995521 0.14224705247579095 154 164 174 0.92 27 0 28 0 29 0 32 0 34 0 35 0 36 0 37 0 
727 -0.492644701567967 -0.26789980413281633 0.5711117737843995 99 89 88 0.66 27 0 28 0 34 0 35 0 36 0 37 0 
728 1.3321204171802332 -0.26352117117443397 -0.349125017944942 40 25 19 0.75 27 0 28 0 29 0 32 0 
729 1.1840114969811355 -0.19691236626179487 -0.31605280271307246 105 96 90 0.12 27 0 28 0 29 0 35 0 
730 0.28001799455917914 0.7832205588498171 0.19534480676097699 13 12 11 0.26 29 0 34 0 35 0 
731 1.2595295123422032 -0.20911659457971743 -0.3224133054065641 73 55 51 0.64 27 0 28 0 29 0 32 0 34 0 35 0 
732 -0.09639373402465432 0.003559979178586581 -0.37052683278548415 73 103 110 0.44 27 0 28 0 29 0 32 0 34 0 35 0 
733 -0.09244498471309956 0.014898080946728454 -0.3821524985198316 71 101 109 0.55 27 0 28 0 29 0 32 0 34 0 35 0 40 0 
734 -1.0271230956299584 0.26188887790793514 -0.3227528041141532 146 129 126 0.57 27 0 29 0 35 0 
735 1.1646391140566037 -0.20443741070726867 -0.37873192898146646 105 85 72 0.2 27 0 28 0 29 0 
736 1.2786080854621835 0.5239769370286774 0.1705106368768573 54 55 62 0.54 27 0 28 0 32 0 34 0 36 0 
737 0.7112092130306576 0.19638365150074688 0.04595304723064353 149 148 147 0.23 27 0 28 0 32 0 
738 1.3307075041914889 -0.23593548978645723 -0.38367578758134924 115 92 79 3.98 27 0 29 0 32 0 
739 -1.3575334600078608 0.3466497802293409 -0.31952689798744993 117 100 98 0.08 27 0 29 0 35 0 
740 -0.2057952480723105 0.8467447156561327 0.10602885009094265 18 25 24 0.7 27 0 29 0 35 0 
741 -0.19634129146948678 0.8402103939628649 0.09711994786144673 17 18 17 0.64 27 0 28 0 29 0 32 0 34 0 35 0 36 0 
742 0.7169821883375928 0.617479467627539 0.08642171153530775 68 53 52 0.47 27 0 28 0 29 0 
743 0.11345220383766592 0.32225265981355944 0.012632117347281646 57 51 51 1.14 27 0 28 0 32 0 34 0 35 0 36 0 37 0 
744 0.5831964553381014 -0.045752457614779474 -0.35468676697663715 92 92 90 0.96 27 0 29 0 35 0 
745 0.944093948627629 0.5033820522045451 0.00698044389941066 61 56 56 0.16 27 0 28 0 29 0 
746 -0.6717921103593093 0.2801769619285891 -0.3026641719504565 61 57 62 1.46 27 0 28 0 29 0 
747 1.0985166393627335 -0.6599525675956059 0.4821583697901618 117 88 74 0.8 27 0 32 0 34 0 38 0 
748 -0.8844610203938853 0.30706035843082446 -0.3527557488670543 48 46 51 0.79 27 0 28 0 29 0 
749 -1.3575782539256953 0.3992840975114673 -0.3593697684653885 167 162 157 0.3 27 0 29 0 35 0 
750 1.2537667468675808 -0.1291498450897942 -0.37721087260115715 107 99 95 1.92 27 0 28 0 32 0 
751 -0.29830671970712797 0.21335268393651496 -0.35902233222630187 103 91 86 0.29 27 0 28 0 29 0 
752 -0.5728845465056239 0.9072753260127837 0.09852666277941002 18 17 15 0.4 27 0 29 0 34 0 35 0 36 0 
753 -0.5302400195905363 0.8965823076247315 0.09712316185898551 21 21 20 0.62 27 0 29 0 34 0 35 0 36 0 
754 0.8211091225891326 0.5218295579692069 0.024774597425126554 66 52 52 0.53 27 0 28 0 29 0 
755 -0.29253769367410487 0.2280320671476468 -0.36310321162675063 123 111 105 0.41 27 0 28 0 29 0 
756 -0.061364108210204826 0.8032144102918606 0.16542833533471202 62 54 58 1.36 27 0 28 0 29 0 34 0 35 0 
757 0.4704080237211613 0.605412917815089 0.03971692281685468 85 79 85 0.43 27 0 28 0 29 0 
758 -0.25322264043993714 0.8177426241943662 0.12710852973316566 67 77 80 4.59 27 0 28 0 29 0 32 0 34 0 35 0 36 0 
759 -0.30944437249777335 0.5163564182582553 0.002035548979070656 137 147 148 1.19 27 0 28 0 29 0 35 0 
760 1.181601361970239 0.42363542316797975 0.02826653630783471 130 119 122 0.36 27 0 28 0 29 0 
761 -0.1402818768595088 0.20473840605079818 -0.4338586482890529 90 73 65 1.06 27 0 28 0 29 0 32 0 
762 -0.11650323155103334 0.7324672875794045 0.060189447835342524 59 64 73 0.84 27 0 28 0 32 0 34 0 35 0 38 0 
763 -0.06489128171227099 0.7182328477879196 0.0533492116431199 69 67 75 0.45 27 0 28 0 32 0 38 0 
764 -0.13695785775090616 0.6196289347669809 0.1753991297505041 80 96 120 0.38 27 0 28 0 29 0 
765 -0.15867191535866307 0.5297419940641319 0.034710968010476795 90 78 75 1.24 27 0 28 0 29 0 
766 0.18710923880743957 0.4360110752590215 0.009320426689803929 146 140 131 0.64 27 0 28 0 29 0 
767 1.231467403393313 0.26335669810609474 0.06677007252248801 49 46 45 1.59 27 0 28 0 32 0 34 0 
768 1.1141074930041461 -0.603643848511551 0.5854101885831559 80 81 81 1.83 27 0 28 0 32 0 
769 1.08984306135791 -0.5953472930165538 0.5934453224069701 78 85 86 0.35 27 0 32 0 34 0 
770 1.179518660801888 -0.5951042087239987 0.5931269474088438 118 111 105 0.6 27 0 28 0 32 0 34 0 38 0 40 0 
771 -0.29588891122390093 0.7707516468533788 0.07063759872727482 59 62 67 1.02 27 0 28 0 29 0 32 0 34 0 35 0 36 0 
772 0.8720465752762616 0.2865627404877309 -0.020368732618879948 139 142 137 0.31 27 0 28 0 29 0 
773 1.0489734777566255 -0.7073553182635735 0.5462624994208621 68 54 45 0.44 27 0 32 0 34 0 
774 -0.8788406315193816 0.9458959020771409 0.1090831902080579 40 52 13 0.46 27 0 29 0 35 0 
775 1.2466782758929889 -0.6007125843006451 0.5999539190748099 70 61 56 1.74 27 0 28 0 32 0 38 0 
776 -1.0408127338132098 0.7523049380630364 -0.007687505083408541 130 128 141 0.74 27 0 29 0 35 0 
777 -0.2541942729906983 0.2794639936329193 -0.45757959097904355 38 32 27 0.21 27 0 28 0 29 0 
778 -1.1831953853227053 0.7860558431830029 -0.0029888653270793153 136 133 149 1.16 27 0 29 0 35 0 
779 1.2094079280934769 -0.006052774983716369 -0.40559748479576074 100 86 76 1.61 27 0 29 0 34 0 35 0 
780 1.2392882072304896 0.3018814460556076 0.07999590913292187 66 68 71 2.04 27 0 28 0 32 0 
781 1.2540650023557125 0.3001255848245157 0.08239512362835322 31 46 56 1.55 27 0 28 0 32 0 34 0 
782 -0.9509692425273973 0.7557831575257619 0.028160314758603366 140 132 145 2.43 27 0 29 0 35 0 
783 0.7974788485133968 0.453345136222597 -0.00017588198361651042 80 71 74 0.43 27 0 28 0 29 0 
784 1.1007256221597275 0.37878148997273864 -0.0006195039877969766 115 106 107 0.28 27 0 28 0 29 0 
785 -0.5305893525432321 0.8680042206021565 0.1585973380142497 37 59 44 0.48 27 0 29 0 32 0 34 0 
786 -1.1111737086209756 0.7803458675190451 -0.027692602485051676 97 94 103 0.43 27 0 29 0 35 0 
787 -0.16554728185302411 0.6145938886176947 0.064296306317142 90 94 93 3.22 27 0 28 0 29 0 34 0 35 0 38 0 
788 1.2492679955456651 0.20027185527413072 -0.11227888069582814 77 67 69 1.36 27 0 28 0 29 0 
789 1.2590146557859732 0.31047399001597165 0.05993620316623749 31 33 35 0.84 27 0 28 0 32 0 34 0 
790 0.9007456246630063 0.35113745846079936 0.003748832694451587 145 151 148 0.53 27 0 28 0 29 0 
791 -0.5621838252955076 0.8237102847498321 0.198129465504172 35 45 34 0.43 27 0 29 0 35 0 
792 0.97609781830092 0.42349755059779126 0.03909288430438462 86 85 86 1.24 27 0 29 0 32 0 34 0 
793 -0.5924973564164837 0.8458436598312291 0.2099137874678697 39 52 31 1.32 27 0 29 0 34 0 35 0 36 0 38 0 40 0 
794 -0.43368794049128057 0.6680165560968729 -0.057314465399473824 26 34 37 0.62 27 0 28 0 29 0 32 0 34 0 35 0 36 0 
795 1.2868899971884804 0.3871797738226923 0.13142984034631733 71 67 70 2.14 27 0 28 0 32 0 34 0 
796 -0.3066457420644638 0.6850121137508309 0.03731772649476006 73 86 95 0.67 27 0 28 0 29 0 32 0 34 0 35 0 36 0 40 0 
797 1.2560252212930048 0.35490687889077144 0.06167914003433295 51 54 59 1.37 27 0 28 0 32 0 34 0 36 0 38 0 
798 -1.083668013569848 -0.2509928618780891 0.04042091573201567 78 70 71 0.95 27 0 28 0 29 0 32 0 34 0 35 0 36 0 38 0 40 0 
799 -0.24905024087279662 -0.39106790120661816 -0.00047472242939949894 38 29 24 0.63 27 0 28 0 29 0 34 0 35 0 40 0 
800 1.2585897905646783 -0.6771839917366946 -0.0790895289722745 75 49 37 0.2 27 0 28 0 29 0 
801 -1.2803112919036455 -0.18532510600965318 0.0023962138379440834 39 28 27 0.75 27 0 29 0 35 0 
802 -0.17816959282991304 -0.3658648693605132 -0.022290489745011022 73 62 52 1.49 27 0 28 0 29 0 32 0 34 0 35 0 36 0 37 0 
803 -1.0256264028426625 0.7780180029013524 -0.03088347429869487 64 60 66 0.45 27 0 29 0 35 0 
804 -0.5250094905698011 -0.3688677264746237 0.08192660939555141 96 85 79 0.32 27 0 28 0 34 0 35 0 37 0 38 0 
805 -1.153739279693983 0.7962894662615625 -0.038463253002237074 89 85 95 0.36 27 0 29 0 35 0 
806 -0.5283825232881333 -0.38464679164449406 0.0883434867645706 103 91 87 0.35 27 0 28 0 34 0 35 0 37 0 38 0 
807 0.30051880803502484 -0.3234522209413329 -0.12918577628767536 53 38 33 0.16 27 0 28 0 29 0 
808 0.20385948639070334 0.09984196784264693 0.2611589017613337 132 136 141 2.91 27 0 28 0 32 0 34 0 35 0 36 0 37 0 38 0 
809 -0.3621243825412873 0.5404941749374848 0.000356352923241543 64 63 67 2.49 27 0 32 0 34 0 35 0 
810 0.5437487466176602 0.8018868642049344 0.2399369325704167 89 82 81 0.38 27 0 28 0 29 0 
811 -0.6140864286978561 0.9181275649074452 0.10424286477292621 38 34 33 0.76 27 0 29 0 34 0 35 0 36 0 
812 -0.1498979351383972 -0.2382338720030283 -0.1963281560799005 44 57 54 0.22 27 0 32 0 34 0 35 0 
813 0.6559494024238223 0.7497386648709385 0.2043315775909863 95 87 86 0.49 27 0 28 0 29 0 
814 0.6762898977553647 0.015464004962323585 0.1652709085947085 103 108 111 0.62 27 0 32 0 34 0 35 0 
815 -0.7492856708285419 0.3530825289808983 -0.31870258611589464 47 36 39 2.14 27 0 28 0 29 0 
816 -0.4002660378811712 0.8688899595971569 0.10200123298398 49 51 55 0.82 27 0 32 0 35 0 36 0 
817 -0.24502964746313063 -0.14236440619405105 -0.19633983336668115 32 23 21 1.64 27 0 28 0 32 0 
818 1.168386606327662 -0.11662856636305191 -0.38120381934669956 94 75 67 0.82 27 0 28 0 29 0 
819 -0.7459537388177524 0.4972514876876526 -0.06116638603778435 43 45 45 1.72 27 0 29 0 34 0 35 0 
820 -1.039071756560171 -0.5057740889505988 0.20083692249502338 127 113 107 0.49 27 0 28 0 32 0 34 0 35 0 36 0 40 0 
821 0.39770026100094746 0.8057008266990937 0.21187038916987622 113 85 84 0.1 27 0 28 0 29 0 
822 -0.31266564363774374 -0.007128860330160247 -0.18475565987420195 89 71 56 0.5 27 0 28 0 29 0 
823 -0.7566010244923808 0.21460993940710582 -0.35291851067136804 93 88 87 2.06 27 0 32 0 38 0 
824 1.0441031488833947 -0.3308718104299813 -0.5095866556885171 70 78 80 0.94 27 0 29 0 35 0 
825 0.39790598329181853 0.7087822299071371 0.09104714489958965 18 15 13 1.36 27 0 28 0 29 0 35 0 
826 -0.5154763998358604 -0.32885251568845786 0.05679275061488798 94 82 77 0.43 27 0 28 0 34 0 35 0 37 0 
827 -0.4431122535842318 0.6154562622384395 -0.02406227100388303 114 106 115 3.01 27 0 28 0 32 0 34 0 35 0 
828 -1.1229564400747094 0.7543602371429619 -0.031297470165022045 129 127 141 1.43 27 0 29 0 35 0 
829 0.7710528930406659 0.20579516753130067 0.171608045451778 156 161 165 1.09 27 0 28 0 29 0 
830 0.5186856682818632 -0.43380260433413514 -0.11113055599228316 88 77 65 0.65 27 0 28 0 29 0 35 0 
831 -0.26930016226302456 -0.28722837660126055 -0.12285958839166711 100 82 73 0.81 27 0 28 0 32 0 
832 -0.1279598184589403 -0.2662402075392734 -0.08125431414319617 93 76 68 0.74 27 0 28 0 29 0 32 0 35 0 36 0 
833 0.5084130805512209 0.7506846653643464 0.16758492756885535 87 77 77 0.28 27 0 28 0 29 0 
834 1.0616942609508484 -0.615547230945298 0.655798622869476 107 126 130 1.09 27 0 32 0 34 0 38 0 
835 -1.3888298359508573 -0.3408809811435363 0.10284589601051064 189 208 223 0.5 27 0 29 0 35 0 
836 0.3169005574996951 -0.3919419996548831 -0.1461670294318752 71 56 48 0.72 27 0 28 0 29 0 
837 0.19983952734690066 0.850919121890551 0.21357761048716106 123 87 84 0.22 27 0 28 0 29 0 
838 0.550987835650565 0.043484251015169395 -0.4494401088084519 29 21 22 0.53 27 0 28 0 29 0 32 0 
839 -1.1579864566213436 -0.38702802070456427 0.14329241454134933 82 85 94 0.77 27 0 28 0 29 0 32 0 34 0 35 0 37 0 38 0 
840 1.1795354214929614 -0.11133763188666013 -0.445292941313831 68 45 39 0.74 27 0 28 0 29 0 
841 0.49240891351505145 0.7646829119155902 0.18725963842125692 82 77 77 0.29 28 0 29 0 32 0 
842 1.295417617296067 0.5889972361589575 0.16711126099141016 119 102 96 0.37 28 0 32 0 34 0 36 0 
843 0.2158475019190736 0.8191231959066843 0.18462222026901143 101 68 65 0.68 28 0 29 0 32 0 34 0 35 0 
844 0.5118797781563185 0.7488975303679462 0.1884247615560467 97 74 69 3.4 28 0 32 0 34 0 35 0 36 0 
845 0.1709404423675166 0.8217546874368045 0.16455728160465932 109 70 66 2.01 28 0 29 0 32 0 35 0 
846 -0.03876971791801559 0.8849717648259632 0.19459669180885275 114 74 70 0.99 28 0 32 0 34 0 
847 0.7632225115651806 0.6771683261584514 0.18795860507730444 22 23 27 0.54 28 0 32 0 34 0 36 0 38 0 
848 1.5845446544484287 0.45016542994220865 0.07009040710684322 34 33 32 0.43 28 0 32 0 34 0 36 0 
849 1.2878323910767875 0.5659654706390945 0.1872643183575845 22 23 27 0.46 28 0 32 0 34 0 36 0 
850 1.281341501640966 0.5411614740558387 0.1320360348448154 18 21 25 0.41 28 0 32 0 34 0 36 0 40 0 
851 1.4906375344773986 0.46757587617472185 0.07013565531971355 18 14 12 0.4 28 0 32 0 34 0 
852 -0.03256066222290199 0.8452790381057009 0.15278833790750734 90 58 55 3.71 28 0 29 0 32 0 
853 1.7999340668069521 0.41623928547170763 0.1263643679621601 103 91 88 2.51 28 0 32 0 34 0 
854 0.7548938095512102 0.6349291495074878 0.1397367012652505 32 35 41 0.76 28 0 32 0 34 0 36 0 38 0 
855 0.9819261684492934 0.5599699920580151 0.11529713655910745 62 57 60 0.69 28 0 32 0 34 0 38 0 
856 1.584626816823996 0.4222198888970006 0.0875569436889353 73 67 62 0.39 28 0 32 0 34 0 36 0 
857 0.4167999954314756 0.6767809843738506 0.10540148218905554 101 78 79 0.46 28 0 29 0 32 0 34 0 35 0 36 0 38 0 
858 0.7574695094577067 0.6501465920671283 0.20806621158580618 34 41 49 0.59 28 0 29 0 32 0 34 0 
859 0.21685280499189574 0.744354105667985 0.17048066540364315 23 26 33 0.34 28 0 29 0 35 0 
860 1.6906406482690814 0.3620249308933714 0.06203391756192478 30 32 27 2.12 28 0 32 0 36 0 
861 0.17685834158784064 0.7282443722997409 0.10777841382772457 111 92 93 0.48 28 0 29 0 32 0 34 0 35 0 
862 -0.2969510819062111 0.8350472350736271 0.11354840478419892 93 82 85 0.87 28 0 32 0 34 0 36 0 38 0 40 0 
863 -0.05789523265589111 0.7806130081631397 0.11161115683488798 100 80 81 0.5 28 0 29 0 32 0 36 0 
864 1.5687411366677564 0.35522932735178014 0.047777811988484964 15 17 15 0.64 28 0 32 0 34 0 36 0 
865 0.9907605641473494 0.520232721278565 0.13602832863752268 29 37 44 1.63 28 0 32 0 36 0 
866 1.7409138526457786 0.3414436193771633 0.1005959760694145 32 44 32 0.47 28 0 32 0 34 0 36 0 
867 -0.5144564134293369 -0.28180158477317363 0.6883497827409807 159 177 187 0.52 28 0 34 0 35 0 36 0 37 0 38 0 40 0 
868 1.652558385506186 0.32825961467349807 0.11601422431863806 13 23 19 0.43 28 0 32 0 34 0 36 0 
869 1.5615609606203564 0.27261340126378397 -0.025851931708397502 13 14 13 2.43 28 0 32 0 34 0 36 0 38 0 
870 -0.5060178797200288 -0.27885289444258293 0.6701908994791769 136 148 157 0.26 28 0 34 0 35 0 36 0 
871 0.2881876320062346 0.5745957211850308 0.006808645633161192 88 79 82 0.4 28 0 29 0 32 0 
872 0.401988595738233 0.5377273556881832 0.02546024790345003 86 78 78 0.79 28 0 29 0 32 0 34 0 35 0 36 0 38 0 
873 -0.46954898885125984 -0.2563360097061841 0.6553361412406523 150 163 171 0.42 28 0 29 0 35 0 
874 1.4558306039022768 0.28718668006177994 0.02025294873741068 94 80 76 0.56 28 0 32 0 34 0 36 0 38 0 40 0 
875 -0.3928814328742575 -0.2783334184890101 0.6532039209187767 149 152 154 0.41 28 0 29 0 34 0 35 0 36 0 38 0 
876 0.37403159437076905 0.5409934018001109 0.028619474320457083 74 69 74 1.34 28 0 29 0 32 0 34 0 35 0 36 0 
877 -0.0520857793859085 0.6710804837248958 0.08736889916923507 57 54 59 0.9 28 0 29 0 34 0 35 0 
878 1.820423608315652 0.2388227458473544 0.13608631845779395 95 121 119 0.72 28 0 32 0 34 0 36 0 
879 0.6854738055473455 0.36020705583708756 -0.101237240740783 71 68 72 0.67 28 0 29 0 32 0 35 0 
880 0.23902002041403736 0.6434584490376132 0.18988374148816678 39 40 45 3.29 28 0 34 0 35 0 38 0 
881 -0.3915935353309018 -0.2598283373247825 0.6360105800429044 82 84 88 0.6 28 0 29 0 34 0 35 0 36 0 37 0 38 0 
882 0.07450216810460472 0.5401452821064849 -0.02350097846451138 92 79 82 0.73 28 0 29 0 32 0 34 0 35 0 36 0 
883 -1.0152036242631677 -0.6495566347745094 0.3035009485014274 82 70 68 0.88 28 0 32 0 34 0 35 0 37 0 38 0 
884 -1.1621162207195217 -0.6053015336779952 0.29364292811555137 110 96 90 0.11 28 0 32 0 35 0 
885 0.6770642636171131 -0.5933240032794824 0.6266289120333287 79 77 65 1.22 28 0 29 0 32 0 
886 -1.2288813854290195 -0.547427210333406 0.2691841579073425 117 107 106 0.64 28 0 29 0 32 0 34 0 35 0 36 0 37 0 38 0 40 0 
887 -1.1929924224342625 -0.5599246431147159 0.2692889124155512 129 117 108 0.47 28 0 29 0 32 0 34 0 35 0 36 0 37 0 38 0 40 0 
888 1.3418756182871039 -0.06062879405983301 -0.43994277421021033 59 39 31 1.09 28 0 29 0 32 0 34 0 
889 -0.4877663340908901 -0.23041699284030626 0.5563134700477229 98 88 90 0.34 28 0 29 0 35 0 
890 -0.8740407476038435 -0.6515986314825003 0.2793170960646255 89 52 50 0.33 28 0 29 0 32 0 34 0 35 0 36 0 37 0 
891 -0.42915223094574695 0.6498188834128311 0.003204032221673536 51 54 59 4.41 28 0 32 0 34 0 35 0 38 0 
892 -0.465881973256721 0.6405781728469451 -0.03135455728605818 54 54 62 0.59 28 0 32 0 34 0 35 0 
893 -0.9981330455991365 -0.5947859390984498 0.2678503423845827 116 111 106 0.33 28 0 32 0 34 0 35 0 36 0 38 0 
894 -0.9504808823580547 -0.6083642720129837 0.26445997823195044 104 87 81 0.42 28 0 29 0 32 0 34 0 35 0 36 0 37 0 38 0 40 0 
895 1.2589721544562942 0.2656879958816869 0.0776714479304792 39 33 35 2.43 28 0 32 0 34 0 36 0 
896 -1.2363039920303798 -0.5396630276275591 0.23814248661586246 89 86 92 0.88 28 0 29 0 32 0 34 0 35 0 37 0 38 0 40 0 
897 -0.2797269114936568 0.6403874255548744 0.061283175618865315 89 115 111 0.73 28 0 32 0 34 0 36 0 
898 -0.8186787159452605 -0.637472741166675 0.2642582228664806 94 81 79 0.67 28 0 34 0 35 0 
899 0.03056575125849617 0.5258712792675142 0.026242885528150794 83 72 64 1.1 28 0 29 0 35 0 
900 1.374360443993892 0.20762481817352652 0.043390433887413815 124 129 135 1.48 28 0 32 0 34 0 
901 0.05992066493431017 -0.4900299089349647 0.4898349197027704 42 42 42 0.39 28 0 34 0 35 0 
902 -1.1966850643918663 -0.5053634272761511 0.23139703891195806 137 122 114 0.79 28 0 29 0 32 0 34 0 35 0 36 0 37 0 38 0 40 0 
903 -0.8943794387698177 -0.6335225559600535 0.2164455190262734 94 104 109 0.75 28 0 29 0 32 0 34 0 35 0 36 0 
904 0.7030401686994678 -0.48202671150451104 0.6133292376314398 148 159 161 0.57 28 0 32 0 38 0 
905 -0.09519807243002051 0.2399153014848563 -0.4488412637389231 63 51 47 0.26 28 0 29 0 32 0 
906 -0.9193123869545311 -0.5581152934118665 0.22560841922766361 97 94 94 0.58 28 0 29 0 32 0 34 0 35 0 36 0 37 0 38 0 
907 0.66771249429409 0.2868142715779868 -0.047220090770318524 19 20 23 0.5 28 0 32 0 35 0 36 0 
908 -0.27232848953897504 0.6114076070745731 0.0627302382022974 108 130 128 0.62 28 0 29 0 32 0 34 0 35 0 36 0 38 0 40 0 
909 -0.9777557271507228 -0.5276642113149124 0.2143918496844236 114 107 106 0.64 28 0 29 0 32 0 34 0 35 0 37 0 38 0 40 0 
910 0.8549998381718792 0.29086776190449193 0.034019308187861586 122 116 108 1.13 28 0 34 0 35 0 38 0 
911 1.2227357796962217 0.2603222499929294 0.13273401474762891 89 103 121 0.21 28 0 32 0 34 0 
912 -0.5684826779696533 -0.5898687440961664 0.23057996241802947 74 72 74 0.35 28 0 34 0 35 0 36 0 37 0 
913 -0.8208990672520341 -0.5861556714157159 0.17858959948723407 140 157 170 0.62 28 0 29 0 34 0 35 0 36 0 37 0 38 0 40 0 
914 1.2283568132680525 -0.6196060608728912 0.5939037389017906 107 111 114 0.58 28 0 32 0 34 0 
