# 3D point list with one line of data per point:
#   POINT3D_ID, X, Y, Z, R, G, B, ERROR, TRACK[] as (IMAGE_ID, POINT2D_IDX)
# Number of points: 413, mean track length: 4.91
0 1.0340170876755033 0.8436221493587588 -0.5587879872082773 170 185 192 0.74 35 0 37 0 39 0 
1 0.575919204092944 0.5887621623918012 -0.7186125420189533 114 141 156 1.01 35 0 37 0 38 0 39 0 41 0 42 0 43 0 44 0 48 0 
2 0.6802033363751697 0.6178493789902766 -0.6752909091722585 137 143 137 1.78 35 0 37 0 38 0 39 0 41 0 42 0 43 0 
3 0.5229400505262882 0.5631503356019002 -0.7270745068641529 151 163 170 0.58 35 0 37 0 38 0 39 0 41 0 42 0 44 0 
4 0.5287364249678868 0.5633309705723631 -0.7048650560951881 55 51 50 0.52 35 0 37 0 38 0 39 0 41 0 42 0 43 0 44 0 46 0 47 0 48 0 49 0 51 0 
5 0.541851161113261 0.559247452829786 -0.6664474268461513 76 62 56 0.58 35 0 37 0 38 0 39 0 41 0 42 0 43 0 44 0 46 0 47 0 48 0 
6 0.5390760545753528 0.4561386328278526 -0.610269453738074 180 189 194 1.08 35 0 36 0 37 0 38 0 39 0 41 0 42 0 44 0 
7 0.7065464131298842 0.4828159333624894 -0.5426962699457791 172 178 185 1.41 35 0 37 0 39 0 
8 0.5378591348658442 0.4329190124538998 -0.5990925922144799 180 193 202 1.55 35 0 36 0 37 0 38 0 39 0 41 0 42 0 43 0 44 0 46 0 47 0 48 0 49 0 51 0 
9 -0.7459188672223511 0.6211552250834081 -0.7398410925263779 21 29 42 1.25 35 0 38 0 39 0 42 0 
10 0.529309185786629 0.3720587602436439 -0.6078516554386659 141 157 170 0.41 35 0 36 0 37 0 38 0 39 0 41 0 42 0 44 0 
11 -0.748284148848857 0.6372255315507355 -0.7012586173916608 42 57 70 0.3 35 0 37 0 38 0 39 0 
12 0.9729352057770031 0.48864864493782767 -0.4316121372709576 175 179 187 2.88 35 0 37 0 39 0 42 0 
13 0.20237477291655726 0.7672216580314815 -0.36274157221180636 70 102 145 1.29 35 0 39 0 41 0 43 0 44 0 
14 0.2656929644480962 0.773245550735139 -0.3390956263535194 15 31 56 0.65 35 0 36 0 37 0 38 0 39 0 41 0 42 0 43 0 44 0 
15 0.6833632332190411 0.37109937695366285 -0.5325525523349313 106 95 85 0.31 35 0 39 0 44 0 
16 0.528914851496268 0.3405405034108558 -0.5827386546710516 104 114 123 1.13 35 0 36 0 37 0 38 0 39 0 41 0 42 0 43 0 44 0 
17 0.5937402903818432 0.346581768106037 -0.5628539825196472 121 134 143 0.48 35 0 37 0 39 0 42 0 
18 -0.7287995192471632 0.6103434046048488 -0.648142608558679 91 84 82 0.32 35 0 37 0 38 0 39 0 41 0 42 0 43 0 44 0 46 0 48 0 
19 0.2968498035156724 0.7902463376357707 -0.2895490233848983 53 50 49 0.65 35 0 36 0 37 0 39 0 41 0 46 0 
20 1.0152707488883577 0.44859811820758666 -0.39854593715707654 112 114 115 1.1 35 0 36 0 37 0 39 0 41 0 42 0 43 0 44 0 46 0 
21 0.6312869120156126 0.35319970111381194 -0.540631980475206 137 140 141 0.9 35 0 36 0 37 0 38 0 39 0 41 0 42 0 
22 0.26170639963179465 0.7591784681195648 -0.3075696219147115 31 31 33 1.71 35 0 37 0 38 0 39 0 41 0 42 0 43 0 44 0 46 0 
23 -0.6774056186835449 0.6146787556071965 -0.6001867622625643 53 62 70 0.59 35 0 37 0 38 0 39 0 41 0 43 0 44 0 46 0 
24 -0.7178608324796671 0.6076714363837872 -0.6156750770338888 57 66 74 0.41 35 0 37 0 38 0 39 0 41 0 42 0 43 0 44 0 46 0 47 0 48 0 
25 0.5960866941244616 0.3298488968480693 -0.5450344798210351 95 89 86 1.06 35 0 36 0 37 0 38 0 39 0 41 0 42 0 43 0 44 0 48 0 
26 -0.6269695275485399 0.625338322465877 -0.5791446245730314 62 69 77 0.81 35 0 37 0 38 0 39 0 41 0 42 0 43 0 44 0 46 0 48 0 49 0 51 0 
27 0.5595173003686406 0.32053727872814675 -0.556882956759432 57 56 57 0.55 35 0 36 0 37 0 38 0 39 0 41 0 
28 -0.5630372069217899 0.6341511821176331 -0.5536124350869516 39 40 45 0.57 35 0 37 0 38 0 39 0 41 0 42 0 43 0 44 0 46 0 
29 0.29486809084121407 0.7734274203611173 -0.2569048314255584 64 61 59 2.41 35 0 37 0 38 0 39 0 41 0 
30 -0.3042126145747668 0.6771231094126122 -0.45217116065398444 63 77 88 0.49 35 0 36 0 37 0 38 0 39 0 41 0 42 0 43 0 44 0 
31 -0.33167751386210076 0.6711156135525639 -0.4633928904218816 48 57 67 0.58 35 0 36 0 37 0 39 0 41 0 42 0 44 0 46 0 
32 1.0175880401086352 0.4115214007613562 -0.38696036826221625 143 150 151 0.88 35 0 36 0 37 0 38 0 39 0 41 0 
33 0.307001500023098 0.7900352355649567 -0.23377865371660422 54 45 42 0.5 35 0 38 0 39 0 
34 0.5388380229370966 0.3044028918186776 -0.5531435298841341 69 70 74 1.61 35 0 36 0 37 0 38 0 39 0 41 0 42 0 43 0 44 0 46 0 47 0 
35 1.0504125512297307 0.4179833268545612 -0.3702624780092518 124 128 134 0.36 35 0 36 0 37 0 38 0 39 0 41 0 42 0 43 0 48 0 
36 1.1033644806034353 0.395992614109424 -0.37301221479651603 127 132 130 2.29 35 0 37 0 38 0 39 0 
37 0.48566628410623164 0.330547827735772 -0.5376774168815097 93 98 104 0.84 35 0 39 0 42 0 43 0 44 0 47 0 48 0 49 0 51 0 
38 -0.6432599607999467 0.594054791453828 -0.567942468736814 76 64 61 0.45 35 0 37 0 38 0 39 0 41 0 43 0 44 0 46 0 
39 -0.7024978725532494 0.5650337170761637 -0.6001927314607229 109 117 125 1.42 35 0 39 0 43 0 
40 0.25970549529686693 0.7208742160919759 -0.2651373880527912 51 50 48 0.35 35 0 36 0 37 0 38 0 39 0 
41 0.17733973364391664 0.7488978677002887 -0.2635509544466632 31 34 41 0.47 35 0 36 0 37 0 38 0 39 0 41 0 42 0 43 0 44 0 46 0 47 0 48 0 
42 0.28483182716113464 0.7286695520999318 -0.24994751663423176 29 33 36 1.14 35 0 36 0 37 0 38 0 39 0 44 0 48 0 49 0 51 0 
43 -0.49415229882641487 0.6059439360568141 -0.5099340859317223 82 61 56 0.54 35 0 37 0 38 0 39 0 41 0 42 0 43 0 
44 -0.3368771782772936 0.6397466189792664 -0.4455456547534553 98 86 81 1.06 35 0 36 0 37 0 38 0 39 0 41 0 42 0 43 0 44 0 46 0 48 0 
45 0.3209782006914584 0.768703804757287 -0.20958420934613597 34 29 26 1.02 35 0 36 0 37 0 38 0 39 0 42 0 44 0 
46 -0.30147150064349737 0.6442784691361823 -0.43225384608413076 94 83 79 0.71 35 0 36 0 37 0 38 0 39 0 41 0 42 0 43 0 44 0 48 0 
47 1.0560401212933992 0.40648657148854994 -0.3504951667341554 76 72 70 0.59 35 0 36 0 38 0 39 0 41 0 
48 -0.626406870495342 0.5708897994888443 -0.5478341004465701 70 74 75 0.46 35 0 37 0 38 0 39 0 41 0 42 0 43 0 44 0 
49 -0.5495154940712264 0.5815996876449496 -0.5201110881590545 89 82 81 0.36 35 0 37 0 38 0 39 0 41 0 42 0 
50 -0.5960295629303749 0.5730624322197597 -0.5369611905792862 65 57 60 0.49 35 0 37 0 38 0 39 0 41 0 42 0 43 0 44 0 47 0 48 0 
51 -0.11410451404593647 0.6670838422786841 -0.35680868722686854 93 82 75 0.76 35 0 36 0 37 0 38 0 39 0 41 0 42 0 43 0 44 0 46 0 
52 -0.25879455983895483 0.6330877652844118 -0.4093269423282637 97 77 71 0.66 35 0 36 0 37 0 38 0 39 0 41 0 43 0 44 0 46 0 
53 -0.721657346770133 0.5460113933259272 -0.5731280114878725 143 138 133 0.49 35 0 38 0 39 0 42 0 43 0 
54 0.30150472624884117 0.7087210271522855 -0.22370516711048238 38 38 38 0.63 35 0 36 0 37 0 38 0 39 0 42 0 43 0 47 0 
55 0.1840681427429337 0.7187036865978976 -0.24132706242950852 82 71 66 0.46 35 0 36 0 37 0 38 0 39 0 41 0 43 0 44 0 46 0 
56 0.16541625442935348 0.7213967901938152 -0.24190409091415055 90 73 66 1.15 35 0 36 0 38 0 39 0 
57 0.25585164243766373 0.731506855943854 -0.21165251592337975 50 39 36 0.92 35 0 36 0 37 0 38 0 39 0 41 0 42 0 43 0 44 0 46 0 47 0 
58 -0.16397076724120696 0.6397007624066477 -0.365716435824216 85 72 66 0.66 35 0 36 0 37 0 38 0 39 0 41 0 43 0 46 0 
59 -0.21108559898378876 0.6258947298384068 -0.37941661197529464 109 103 99 0.63 35 0 36 0 38 0 39 0 42 0 
60 0.4495992878437751 0.3583680407147596 -0.45771993933305355 90 89 91 0.47 35 0 39 0 42 0 47 0 
61 -0.4871186440546713 0.5596924824482837 -0.47972669925173617 75 84 90 0.6 35 0 37 0 38 0 39 0 41 0 42 0 43 0 44 0 46 0 47 0 48 0 
62 0.05702385101327456 0.669322345531849 -0.27618047099229326 74 43 41 0.39 35 0 36 0 37 0 39 0 41 0 42 0 
63 -0.12108293047511609 0.6281824333394719 -0.34512324708110365 102 89 82 0.34 35 0 36 0 39 0 
64 -0.4384927293994074 0.5776057081319796 -0.4532373034159425 75 65 62 1.98 35 0 36 0 37 0 38 0 39 0 43 0 44 0 
65 -0.34824788207297375 0.5828273594457412 -0.4256472610019386 73 69 68 0.69 35 0 36 0 37 0 38 0 39 0 41 0 42 0 43 0 44 0 46 0 47 0 48 0 
66 -0.37547764703180264 0.5753126191591048 -0.4373656539402646 59 52 54 0.62 35 0 36 0 37 0 38 0 39 0 41 0 42 0 43 0 
67 0.9691232624488397 0.42166156380208725 -0.30110313003513234 68 63 61 0.38 35 0 36 0 37 0 39 0 
68 -0.24636862184246855 0.6030666671154966 -0.3846141223603021 115 106 99 0.52 35 0 36 0 37 0 38 0 39 0 41 0 42 0 43 0 44 0 
69 -0.2818295211057583 0.593282824795714 -0.39895340919198863 100 99 101 0.58 35 0 36 0 37 0 38 0 39 0 41 0 43 0 44 0 46 0 48 0 51 0 
70 -0.32368054942029045 0.5892945039969845 -0.4139058007287695 88 82 80 0.51 35 0 36 0 37 0 38 0 39 0 41 0 42 0 43 0 44 0 46 0 47 0 
71 0.1666126174734952 0.6854959021266546 -0.23101878900304063 68 44 42 0.8 35 0 37 0 38 0 39 0 41 0 
72 -0.4869681996358297 0.5595988091430592 -0.4608805128750282 31 29 33 0.87 35 0 39 0 42 0 
73 -0.6838239421553709 0.5058246068699083 -0.5470593075510384 77 78 80 0.54 35 0 37 0 38 0 39 0 41 0 42 0 43 0 44 0 46 0 47 0 48 0 
74 0.29073918064162446 0.7030287095427948 -0.1841847665645613 28 24 27 0.72 35 0 36 0 37 0 38 0 39 0 41 0 42 0 43 0 
75 -0.0645496684176301 0.6244661037525545 -0.31331976274390594 93 83 79 0.3 35 0 36 0 38 0 39 0 43 0 
76 -0.02116077272099748 0.6342933918748942 -0.29340528185769266 87 78 75 0.56 35 0 36 0 37 0 38 0 39 0 41 0 42 0 43 0 44 0 
77 -0.28946901668473823 0.5883151365802555 -0.3847176224365003 39 34 38 0.73 35 0 36 0 37 0 38 0 39 0 41 0 43 0 44 0 46 0 
78 0.059031694558162706 0.6438083602113058 -0.26527988048845863 78 69 68 0.76 35 0 36 0 37 0 38 0 39 0 41 0 42 0 43 0 44 0 
79 0.1406197084357763 0.6622609192896382 -0.22643290761967827 56 46 44 1.17 35 0 36 0 37 0 38 0 39 0 41 0 42 0 43 0 44 0 46 0 48 0 
80 -0.11596284563160775 0.6094869155077811 -0.3215139370990798 115 100 92 0.66 35 0 37 0 39 0 44 0 
81 -0.4822364786498019 0.5607482580034001 -0.43630253731178104 85 94 100 1.0 35 0 36 0 37 0 38 0 39 0 41 0 44 0 
82 1.0464230241394055 0.3493285461223592 -0.31896599262648695 123 122 125 1.46 35 0 36 0 39 0 
83 0.17376286928483503 0.6678430986722828 -0.21298439022992488 63 51 48 0.84 35 0 37 0 38 0 39 0 41 0 42 0 
84 -0.5906415627317889 0.5027079271083522 -0.5022351304574844 142 137 133 0.54 35 0 37 0 38 0 39 0 41 0 43 0 
85 0.018932102147600993 0.6296850737130285 -0.2683706078267678 38 33 33 0.74 35 0 36 0 37 0 38 0 39 0 41 0 44 0 
86 -0.29018996661389107 0.5709447534017145 -0.3797954037994835 67 64 72 0.45 35 0 37 0 38 0 39 0 
87 -0.3700678236889057 0.5769039198367327 -0.3926667115339135 85 88 91 0.78 35 0 36 0 37 0 38 0 39 0 41 0 43 0 44 0 46 0 48 0 
88 0.2938127470148757 0.6644852289752008 -0.17856824263110904 33 34 44 0.32 35 0 37 0 39 0 
89 -0.06155500911938594 0.6010375447057859 -0.29877738714269264 85 79 80 0.62 35 0 36 0 37 0 38 0 39 0 41 0 42 0 43 0 44 0 46 0 47 0 
90 0.9738990474996585 0.43004162932326184 -0.24006254060596754 42 32 28 1.14 35 0 36 0 37 0 38 0 39 0 41 0 44 0 
91 0.07501309146963486 0.648599397649093 -0.2125395555132057 72 68 67 0.68 35 0 36 0 37 0 38 0 39 0 41 0 42 0 43 0 44 0 48 0 
92 -0.480812572645279 0.5321422796371414 -0.41878365467597334 100 130 166 0.17 35 0 37 0 38 0 39 0 
93 0.1306421730690308 0.6598827693370874 -0.1877579963395415 73 73 72 0.65 35 0 36 0 37 0 38 0 39 0 41 0 42 0 43 0 44 0 46 0 47 0 
94 -0.26145210143195197 0.5414478219534172 -0.3633728235109046 122 109 102 0.63 35 0 36 0 37 0 38 0 39 0 41 0 42 0 43 0 
95 0.18633381055466935 0.6603683096604618 -0.17203277649699378 62 61 61 0.72 35 0 36 0 37 0 38 0 39 0 41 0 42 0 43 0 44 0 46 0 47 0 48 0 
96 -0.19796664674598663 0.5519647902684763 -0.33837964697951484 126 118 113 0.45 35 0 36 0 37 0 38 0 39 0 41 0 42 0 44 0 
97 -0.2231153961653165 0.5410352301208667 -0.3506833413298278 103 93 87 0.35 35 0 36 0 37 0 38 0 39 0 41 0 42 0 43 0 
98 -0.48647817877590227 0.489057992948288 -0.444569082898721 82 79 82 1.32 35 0 37 0 38 0 39 0 41 0 44 0 
99 -0.5404550007597757 0.47165428985245683 -0.4638542294194299 79 78 84 0.62 35 0 37 0 38 0 39 0 41 0 42 0 43 0 44 0 46 0 47 0 48 0 
100 -0.005840457624813444 0.5797448983813102 -0.2557060667028799 80 81 83 0.62 35 0 36 0 37 0 39 0 42 0 
101 0.6341120332331769 0.7359225718393346 0.01306299148414758 37 30 26 0.49 36 0 37 0 41 0 44 0 
102 -0.20013407547740347 0.5183154181080022 -0.33085530541113606 146 134 127 0.69 35 0 36 0 37 0 38 0 39 0 41 0 
103 -0.480496601213682 0.48883846993059304 -0.4081064818201505 101 122 138 1.06 35 0 37 0 38 0 39 0 41 0 42 0 43 0 44 0 46 0 
104 -0.40344271388536224 0.514767261076312 -0.3682900324735623 99 120 144 1.07 35 0 36 0 39 0 41 0 42 0 
105 -0.4281537451556976 0.5024970850028155 -0.38305951857106746 134 152 168 0.57 35 0 36 0 37 0 38 0 39 0 41 0 42 0 43 0 44 0 46 0 47 0 48 0 
106 -0.06184086298351876 0.5463521918866475 -0.27192495908165504 102 97 95 0.6 35 0 36 0 37 0 38 0 39 0 41 0 42 0 44 0 47 0 
107 -0.37280697610223656 0.5147729046475517 -0.3589299905891381 140 161 174 0.59 35 0 36 0 37 0 38 0 39 0 41 0 42 0 43 0 44 0 46 0 48 0 
108 -0.17649290531321848 0.5141476399249808 -0.31073247125554926 115 112 106 0.68 35 0 36 0 37 0 38 0 39 0 41 0 42 0 43 0 46 0 48 0 51 0 
109 0.28842867522536164 0.6011575056259731 -0.12836020607649767 49 49 54 0.34 35 0 38 0 39 0 
110 0.018051989240518762 0.565231806067059 -0.20945458990100896 96 105 113 1.51 35 0 36 0 37 0 38 0 39 0 41 0 42 0 
111 -0.6329534928584257 0.40385250763471814 -0.4755191138083832 127 115 112 0.62 35 0 37 0 38 0 39 0 41 0 43 0 44 0 46 0 48 0 
112 -0.596363293386347 0.40576620281978687 -0.45890749762211125 107 99 100 0.49 35 0 37 0 38 0 39 0 41 0 42 0 43 0 44 0 46 0 47 0 48 0 
113 0.18217382603014431 0.6007436360328875 -0.13669836832578408 72 83 100 0.63 35 0 36 0 37 0 38 0 39 0 41 0 42 0 43 0 44 0 47 0 48 0 
114 -0.005892697104709743 0.5057867330629602 -0.2522712908046656 136 124 115 1.77 35 0 36 0 37 0 38 0 39 0 
115 -0.3737868687235044 0.4786567538906343 -0.3437267676662188 157 180 197 0.54 35 0 36 0 39 0 44 0 
116 -0.5273255733722619 0.39850775969737073 -0.4249170522182193 110 103 101 0.5 35 0 37 0 38 0 39 0 41 0 42 0 43 0 44 0 46 0 47 0 48 0 
117 0.5822500238687147 0.6261678026597096 -0.004409449692577061 43 37 32 4.13 35 0 39 0 41 0 42 0 44 0 46 0 
118 0.07234018593205271 0.5542230446166918 -0.16579977777114618 124 141 155 0.9 35 0 36 0 37 0 38 0 39 0 41 0 42 0 44 0 46 0 
119 -0.24865221821771288 0.44736836267184604 -0.32535527956947363 149 136 124 0.9 35 0 36 0 37 0 38 0 39 0 
120 -0.04304159820539022 0.4927765680279308 -0.2431757709524025 83 80 80 0.61 35 0 36 0 37 0 38 0 39 0 41 0 42 0 43 0 44 0 46 0 47 0 
121 0.32517853755043047 0.5334487911523491 -0.13309820305065245 96 85 81 0.81 35 0 36 0 37 0 38 0 39 0 41 0 42 0 43 0 46 0 
122 0.12814742068213425 0.5607230721745443 -0.14409819090817666 140 156 169 0.55 35 0 37 0 38 0 39 0 41 0 42 0 43 0 47 0 
123 -0.4859463496113525 0.4306944598937967 -0.37490966134969206 119 141 155 0.86 35 0 37 0 38 0 39 0 42 0 
124 -0.43004321225833997 0.44026808548281804 -0.35232049706435364 138 161 175 0.5 35 0 36 0 37 0 39 0 41 0 43 0 44 0 46 0 
125 -0.6674795691247788 0.360501402288384 -0.47162431586272335 146 143 142 0.64 35 0 37 0 38 0 39 0 41 0 42 0 43 0 44 0 46 0 47 0 48 0 
126 -0.37345246913729047 0.4485139830796196 -0.33036913304070237 142 163 178 0.65 35 0 36 0 37 0 38 0 39 0 41 0 42 0 43 0 44 0 
127 -0.3196695333671713 0.449141300664046 -0.3160548657444313 110 118 136 1.07 35 0 36 0 37 0 38 0 39 0 41 0 42 0 43 0 48 0 
128 -0.5147837421466446 0.373877762131312 -0.40676077365058494 122 102 94 0.55 35 0 37 0 38 0 39 0 41 0 42 0 43 0 44 0 
129 0.020506477506942122 0.49848648292351827 -0.18142560049271483 95 104 113 1.2 35 0 37 0 38 0 39 0 41 0 42 0 43 0 44 0 
130 -0.607335668539551 0.348125623167804 -0.44220498168805067 139 143 144 0.83 35 0 38 0 39 0 41 0 42 0 44 0 46 0 
131 0.07127539133823602 0.5172355080700876 -0.15203555503220056 136 149 160 0.57 35 0 36 0 37 0 38 0 39 0 41 0 42 0 43 0 44 0 46 0 48 0 
132 -0.5341962467243027 0.3637357051169244 -0.40972541882047353 82 76 78 1.15 35 0 37 0 38 0 39 0 41 0 42 0 43 0 44 0 46 0 47 0 
133 -0.6807330182266298 0.3307818367609057 -0.4672121455945373 140 129 123 0.65 35 0 38 0 39 0 41 0 42 0 43 0 44 0 46 0 47 0 48 0 
134 -0.4271617281149154 0.441017166213527 -0.31390098201203 138 161 176 0.81 35 0 37 0 38 0 39 0 41 0 43 0 
135 0.5102923673323203 0.13472530107739034 -0.4292618009407434 152 158 164 1.42 35 0 38 0 39 0 42 0 43 0 
136 0.3262480608206962 0.4983621069073469 -0.11674839910612866 111 100 92 0.42 35 0 36 0 37 0 38 0 39 0 41 0 42 0 
137 0.12796117905752447 0.5254741676077771 -0.1287652874516454 128 142 154 0.46 35 0 36 0 37 0 38 0 39 0 41 0 42 0 43 0 44 0 46 0 47 0 48 0 
138 -0.46873803436083805 0.4199100494127697 -0.3347423738882431 100 119 134 0.36 35 0 37 0 39 0 41 0 
139 -0.025392078210678015 0.45651151489101505 -0.21556545864578114 90 83 83 0.74 35 0 36 0 37 0 38 0 39 0 41 0 42 0 43 0 46 0 
140 -0.44861901959145967 0.4247310167903342 -0.3207832892049127 116 140 154 0.41 35 0 36 0 39 0 41 0 44 0 
141 -0.563744522424803 0.3391175879730483 -0.4159939332757765 125 128 128 0.46 35 0 37 0 38 0 39 0 41 0 42 0 43 0 44 0 48 0 
142 -0.5481170481377526 0.3389979983473583 -0.40784182805748737 143 137 137 0.68 35 0 37 0 38 0 39 0 41 0 42 0 43 0 
143 0.5799408059950724 0.5609643742489444 0.02306637790104271 45 40 34 4.12 35 0 39 0 41 0 42 0 44 0 46 0 
144 0.03211507024279214 0.514456132550205 -0.12171591143686267 72 80 82 0.78 35 0 38 0 39 0 41 0 
145 -0.26220930476011717 0.3775297032881779 -0.3017425399012985 107 105 101 0.23 35 0 36 0 39 0 
146 -0.5132547220857595 0.3333920671203753 -0.38538324113773803 113 120 125 0.48 35 0 37 0 38 0 39 0 41 0 44 0 
147 -0.6386981970573113 0.30917822807247347 -0.43595845025443714 159 143 132 0.19 35 0 39 0 41 0 44 0 
148 0.012613386183428776 0.4383915583271236 -0.18788845966507517 71 66 67 0.4 35 0 37 0 38 0 39 0 44 0 
149 -0.7069791340947598 0.29945702335508034 -0.45436756610542584 100 86 85 1.57 35 0 37 0 38 0 39 0 41 0 42 0 44 0 46 0 
150 0.567162959147288 0.09142917902178123 -0.42702162580885683 150 159 166 0.51 35 0 37 0 38 0 39 0 41 0 42 0 43 0 
151 0.1631713966538425 0.5085479536914844 -0.08608285478484778 65 86 98 0.35 35 0 39 0 42 0 
152 -0.031261968934981677 0.4224294670863755 -0.2030003954175481 73 64 64 0.37 35 0 36 0 37 0 38 0 39 0 41 0 42 0 43 0 44 0 46 0 47 0 
153 -0.46549528501410964 0.36615368552521355 -0.33474804006944026 97 113 129 0.55 35 0 39 0 43 0 
154 -0.3578598995354558 0.40144551797581224 -0.27248322365994126 63 72 83 0.63 35 0 36 0 38 0 39 0 
155 -0.37524383888640545 0.37918729003538204 -0.29830329957663504 71 71 77 0.51 35 0 36 0 38 0 39 0 
156 -0.4045220770982165 0.3871174925466347 -0.2962054581547333 75 79 84 1.44 35 0 36 0 37 0 38 0 39 0 
157 0.23311700661910573 0.47570974908644736 -0.09217076141904101 62 56 55 0.91 35 0 36 0 37 0 38 0 39 0 41 0 43 0 
158 -0.3067879628736907 0.3881531460115699 -0.27444192599944084 78 81 96 1.11 35 0 36 0 37 0 38 0 39 0 41 0 44 0 46 0 48 0 
159 -0.52789595037137 0.3034980832039965 -0.3793817864995326 72 71 75 0.41 35 0 37 0 38 0 39 0 41 0 42 0 43 0 44 0 46 0 47 0 
160 0.28558752020399836 0.45954975108002594 -0.0791095027310782 47 41 41 0.35 35 0 36 0 37 0 38 0 39 0 41 0 42 0 
161 0.0993284965733705 0.453968528998814 -0.10921418775540981 89 100 114 1.85 35 0 36 0 37 0 39 0 
162 0.19601794057009247 0.4704569174087707 -0.0719594067631586 125 133 145 0.67 35 0 36 0 37 0 38 0 39 0 41 0 42 0 43 0 44 0 47 0 48 0 
163 -0.10377845867496238 0.36621998058844113 -0.21329067909095212 72 71 72 1.03 35 0 36 0 37 0 38 0 39 0 41 0 42 0 43 0 44 0 46 0 47 0 48 0 49 0 51 0 
164 -0.5527033130220604 0.27675703028242743 -0.379962133017296 116 111 108 0.7 35 0 37 0 38 0 39 0 41 0 42 0 43 0 44 0 46 0 
165 0.3249887856839541 0.41485805400154774 -0.0860547623696657 87 78 75 0.59 35 0 36 0 37 0 38 0 39 0 41 0 42 0 44 0 46 0 47 0 
166 -0.671848503140706 0.25203065907449007 -0.42151672535013573 110 94 88 0.84 35 0 37 0 38 0 39 0 41 0 42 0 43 0 44 0 46 0 48 0 
167 -0.06232509346404247 0.3738752423026661 -0.18533952619799443 101 97 95 0.53 35 0 36 0 37 0 38 0 39 0 41 0 
168 -0.07530643516526947 0.35719120920925657 -0.2021441568267599 74 77 79 0.49 35 0 36 0 37 0 38 0 39 0 41 0 42 0 43 0 44 0 46 0 47 0 48 0 
169 -0.6116310686175337 0.2594028406538599 -0.3976612402566102 151 140 131 0.79 35 0 38 0 39 0 41 0 42 0 43 0 
170 0.1479018706648193 0.43489607176732736 -0.07313920242431116 41 57 66 1.33 35 0 36 0 37 0 38 0 39 0 43 0 
171 -0.356607118548923 0.3310219473665752 -0.24859075009253973 122 136 148 1.19 35 0 36 0 37 0 39 0 41 0 42 0 43 0 44 0 
172 -0.3813823616213481 0.320326908692643 -0.2610314166512988 138 155 169 0.74 35 0 36 0 37 0 38 0 39 0 41 0 42 0 43 0 44 0 46 0 47 0 48 0 
173 -0.4078947480417585 0.32423138669240814 -0.26628417362667767 130 144 158 1.83 35 0 36 0 37 0 38 0 39 0 41 0 43 0 44 0 
174 -0.43682172032633404 0.3093153387286138 -0.28428502690372626 158 178 188 0.59 35 0 36 0 37 0 38 0 39 0 41 0 43 0 44 0 48 0 
175 -0.46860880996957244 0.31382575915086763 -0.28657262930911354 78 93 110 0.97 35 0 36 0 37 0 39 0 
176 -0.28995283126285176 0.2933712840491028 -0.26933703276563237 96 103 114 0.26 35 0 37 0 39 0 
177 -0.6426029635878157 0.22805044142732678 -0.3959165542858971 146 134 123 0.31 35 0 38 0 39 0 41 0 42 0 44 0 47 0 
178 0.013000318629930563 0.35053294176115785 -0.13431528455444264 99 102 106 1.87 35 0 36 0 37 0 38 0 39 0 41 0 42 0 44 0 
179 -0.4128576496641272 0.29291086368607966 -0.2675041868404646 88 117 133 1.58 35 0 36 0 39 0 42 0 
180 -0.5893667771149653 0.21936723322810298 -0.3743727766218523 135 124 116 0.57 35 0 37 0 38 0 39 0 41 0 42 0 
181 0.06425101540445799 0.38967232279353403 -0.08346486023964461 122 135 149 0.6 35 0 36 0 37 0 38 0 39 0 41 0 42 0 43 0 44 0 46 0 
182 0.17475741642474402 0.4050660175195938 -0.04118167419778662 101 118 137 0.45 35 0 36 0 37 0 38 0 39 0 41 0 42 0 43 0 44 0 46 0 47 0 48 0 
183 0.12046548579483773 0.3981294064417925 -0.060654599478105364 113 128 143 0.4 35 0 36 0 37 0 38 0 39 0 41 0 42 0 43 0 44 0 46 0 47 0 48 0 
184 0.32192532878827557 0.3587447985781682 -0.05996134150599963 102 94 90 0.7 35 0 36 0 37 0 38 0 39 0 41 0 42 0 44 0 46 0 48 0 
185 -0.519326361152121 0.2207370595397728 -0.3422761987207743 115 105 107 1.1 35 0 37 0 38 0 39 0 41 0 42 0 44 0 47 0 
186 -0.5484791079857971 0.22671033286654285 -0.3436708222567393 122 114 111 0.46 35 0 38 0 39 0 41 0 42 0 44 0 
187 -0.4393373143375463 0.27351010039502366 -0.2650265179412463 159 176 189 0.64 35 0 36 0 37 0 39 0 41 0 44 0 46 0 
188 -0.38318547497700606 0.28158927887833857 -0.24354882749083706 162 181 196 0.31 35 0 36 0 37 0 39 0 43 0 44 0 
189 0.5190866522390961 0.405464133543433 0.04711695748049549 50 45 40 2.44 35 0 39 0 41 0 44 0 
190 0.010882740947049108 0.31819171679222225 -0.12985854508480776 89 96 99 1.21 35 0 38 0 39 0 41 0 
191 -0.1183533721129244 0.28851532052005613 -0.1838904865017048 70 72 75 0.49 35 0 37 0 38 0 39 0 41 0 
192 0.6195428583142922 0.47728674607201577 0.14018072617303678 62 60 56 3.72 35 0 36 0 37 0 39 0 41 0 44 0 46 0 
193 -0.6693944610903557 0.17848452452362762 -0.3868320900790452 93 88 88 0.95 35 0 37 0 38 0 39 0 41 0 42 0 43 0 44 0 47 0 48 0 
194 0.25719305052200525 0.3582017210322783 -0.03775204473984828 61 46 46 0.58 35 0 36 0 37 0 38 0 39 0 41 0 43 0 
195 -0.5799874831410332 0.1925612892987023 -0.352396014314625 88 90 92 0.29 35 0 37 0 38 0 39 0 41 0 42 0 43 0 44 0 46 0 47 0 48 0 
196 -0.7120139816458011 0.14661739026188014 -0.41848027376694263 103 96 96 1.74 35 0 38 0 39 0 41 0 44 0 
197 -0.48995207797213336 0.23608532221936407 -0.2812139447857913 142 158 162 1.01 35 0 37 0 38 0 39 0 41 0 44 0 
198 0.17363131338801113 0.3709292101575754 -0.024028340264619752 93 119 133 0.52 35 0 39 0 42 0 43 0 
199 0.08921518086160396 0.34973368209267336 -0.056758039901595225 66 96 109 0.57 35 0 36 0 39 0 
200 -0.38344318843521874 0.2575589318134318 -0.231920967516537 162 175 187 0.5 35 0 36 0 37 0 39 0 41 0 42 0 43 0 44 0 46 0 47 0 48 0 
201 -0.7264477314613551 0.14782792808990886 -0.40129391279610616 95 87 82 0.76 35 0 37 0 38 0 39 0 41 0 42 0 47 0 
202 -0.5370461216066684 0.1816501409559131 -0.3285319904877988 76 74 76 0.58 35 0 37 0 38 0 39 0 41 0 42 0 43 0 44 0 
203 0.28317668260297396 0.3381754890665106 -0.02378357350246696 51 48 48 0.68 35 0 36 0 37 0 38 0 39 0 41 0 
204 0.5742354579875153 0.43854837724929197 0.14356195563546104 52 53 53 1.66 35 0 36 0 37 0 44 0 
205 -0.32460292157453496 0.21089327997573748 -0.24532563307092903 67 66 86 0.69 35 0 36 0 37 0 38 0 39 0 
206 0.11922062532205047 0.3362432937979259 -0.030968897055953848 118 132 145 0.69 35 0 36 0 37 0 38 0 39 0 41 0 43 0 44 0 46 0 
207 -0.6461395916513986 0.14374198153461776 -0.3667433256549215 116 107 105 0.82 35 0 37 0 38 0 39 0 41 0 42 0 43 0 46 0 47 0 
208 0.172576857723081 0.3466366038807302 -0.010936594137076261 89 97 107 0.59 35 0 36 0 37 0 38 0 39 0 41 0 42 0 43 0 44 0 46 0 47 0 48 0 
209 -0.1051128535080934 0.2490291407323777 -0.15803090664931507 81 74 71 0.59 35 0 36 0 37 0 38 0 39 0 41 0 44 0 
210 -0.580227006156036 0.16212367974319486 -0.3334870229152622 148 146 144 1.03 35 0 39 0 42 0 43 0 
211 0.03233804506931093 0.2935386758998685 -0.07301649598705029 72 75 94 1.82 35 0 36 0 38 0 39 0 42 0 
212 0.09128943607626527 0.31858311754438773 -0.03156769988485819 53 51 76 0.33 35 0 38 0 39 0 
213 -0.5092834371644783 0.15730166363045772 -0.3041337309323733 74 72 70 0.56 35 0 37 0 38 0 39 0 41 0 42 0 43 0 44 0 46 0 47 0 48 0 
214 0.19659880402856844 0.31611660017437954 -0.015586119131166365 90 90 100 1.79 35 0 36 0 37 0 38 0 39 0 41 0 42 0 43 0 44 0 48 0 
215 -0.07884022523669776 0.23897081857895597 -0.140162411356054 98 90 87 0.17 35 0 39 0 42 0 
216 -0.37889509451914805 0.17325378066338293 -0.25898333327506573 30 22 21 1.14 35 0 36 0 39 0 42 0 44 0 
217 -0.40891981863375504 0.1724148299912837 -0.26548146312801024 28 19 16 0.88 35 0 36 0 37 0 38 0 39 0 41 0 42 0 43 0 44 0 46 0 47 0 48 0 
218 -0.45675922158338134 0.1648557008449768 -0.2840115799604699 27 18 15 1.0 35 0 37 0 38 0 39 0 41 0 42 0 43 0 
219 -0.47267884037586105 0.15946756011087082 -0.292475809145633 40 28 22 0.59 35 0 38 0 39 0 
220 -0.021625554815868142 0.24968942154277052 -0.11663704251345419 112 105 100 0.61 35 0 36 0 38 0 39 0 41 0 43 0 44 0 
221 0.5688662343138793 0.40761613679476694 0.15307781598046422 71 72 72 0.23 35 0 39 0 42 0 
222 -0.32709816623399335 0.17940566343522407 -0.2393700101437266 28 20 17 1.07 35 0 36 0 37 0 38 0 39 0 42 0 43 0 
223 -0.35601389620597157 0.1753052627026201 -0.24865712667238515 32 24 20 1.19 35 0 36 0 38 0 39 0 41 0 
224 -0.30466123684660873 0.19146016026034263 -0.21816905737368697 38 27 22 1.33 35 0 36 0 38 0 39 0 41 0 42 0 
225 0.49530753744463496 -0.011053697821440542 -0.31782621085040175 140 142 148 0.47 35 0 36 0 37 0 38 0 39 0 
226 0.032129552380121607 0.23611685471889654 -0.09576264487794872 34 26 24 0.72 35 0 36 0 37 0 38 0 39 0 41 0 43 0 44 0 
227 -0.002808973145697502 0.23183185962586494 -0.10511707649152702 47 38 33 0.48 35 0 36 0 37 0 38 0 39 0 41 0 42 0 43 0 44 0 46 0 47 0 48 0 
228 0.9654041482955054 0.43034808050878115 0.2684614115467976 31 23 20 0.61 35 0 36 0 37 0 38 0 39 0 44 0 
229 -0.46947621798417516 0.13531992715361585 -0.2790139584794973 127 120 116 0.73 35 0 37 0 38 0 39 0 41 0 42 0 43 0 
230 0.5570450787942482 -0.07155023775803286 -0.3610896564708346 149 159 168 0.62 35 0 36 0 37 0 38 0 39 0 41 0 42 0 43 0 44 0 
231 0.15583536748677274 0.26002654567818984 -0.03775388759710241 28 21 17 0.62 35 0 36 0 37 0 38 0 39 0 41 0 42 0 43 0 44 0 48 0 
232 -0.7259942142964981 0.0820938581938331 -0.3751861385452564 127 97 91 0.28 35 0 37 0 38 0 39 0 
233 0.22479903845878868 0.2674183175544373 -0.01636943208863051 37 33 31 0.73 35 0 36 0 37 0 38 0 39 0 41 0 42 0 43 0 44 0 46 0 47 0 48 0 51 0 
234 0.1948442115205246 0.26218287364297854 -0.026854853809185952 25 18 15 0.58 35 0 36 0 37 0 38 0 39 0 41 0 42 0 43 0 
235 -0.3049550082845579 0.15660459462441417 -0.21853551373128144 123 115 113 0.36 35 0 37 0 39 0 
236 -0.35166455781596073 0.15333364940508665 -0.23306191424317024 109 99 95 0.47 35 0 39 0 43 0 
237 -0.5759218230250931 0.10334457506037593 -0.31037479533104695 120 117 118 0.84 35 0 38 0 39 0 41 0 43 0 44 0 48 0 51 0 
238 -0.6532822568729675 0.09175901173884095 -0.3366708292890148 89 82 83 0.65 35 0 37 0 39 0 
239 -0.2957878918873176 0.15350430580020824 -0.20589643532024726 99 89 87 0.75 35 0 36 0 37 0 38 0 39 0 41 0 42 0 43 0 44 0 46 0 47 0 
240 1.0127033508505385 0.04949450422294348 -0.1359982788235976 115 115 114 1.13 35 0 39 0 42 0 43 0 44 0 
241 0.5076652872177649 0.314667245887921 0.1026134951482427 43 30 23 1.07 35 0 39 0 41 0 42 0 43 0 44 0 47 0 
242 0.5562860674191403 0.32647844012063004 0.12780012410388664 30 22 18 0.39 35 0 39 0 42 0 
243 0.003383683555839956 0.2055403319644854 -0.08932974908293612 96 85 79 0.49 35 0 36 0 37 0 38 0 39 0 41 0 42 0 43 0 44 0 46 0 47 0 
244 -0.7293011765722202 0.058730650141066335 -0.3622919677802159 102 95 92 0.57 35 0 37 0 39 0 41 0 42 0 44 0 46 0 47 0 48 0 49 0 51 0 
245 0.25369442617494 0.2619426363239537 0.018531141547100338 53 50 50 1.57 35 0 36 0 37 0 39 0 41 0 
246 0.3574478642534913 0.23886513185414848 0.013371937311678073 62 54 52 0.66 35 0 36 0 37 0 38 0 39 0 44 0 
247 0.22065534381171398 0.24828673506706966 0.004614003337034767 74 67 61 0.68 35 0 36 0 37 0 39 0 
248 -0.17169397762970906 0.1654147455393778 -0.14841657133831476 90 84 81 0.52 35 0 36 0 37 0 38 0 39 0 41 0 43 0 44 0 
249 -0.32448468872849334 0.13394467124532367 -0.20898197159152287 117 111 107 0.56 35 0 36 0 37 0 38 0 39 0 42 0 43 0 44 0 47 0 
250 -0.029846374827983357 0.18590282229185007 -0.09315516442981964 79 73 74 1.1 35 0 37 0 38 0 39 0 41 0 42 0 43 0 
251 -0.43767424828287105 0.10521235755536658 -0.24508674838044375 75 67 70 0.36 35 0 37 0 38 0 39 0 41 0 42 0 43 0 44 0 
252 0.9303957961790312 0.3732239361030215 0.27547384860870405 20 19 20 0.34 35 0 36 0 37 0 38 0 39 0 44 0 
253 0.0698160041083874 0.18867996695848355 -0.058920387528423435 94 92 92 1.19 35 0 36 0 37 0 38 0 39 0 41 0 42 0 43 0 44 0 46 0 47 0 
254 -0.6342330144768284 0.055322519000239226 -0.3213058882810633 138 130 123 0.37 35 0 38 0 39 0 41 0 42 0 44 0 
255 0.1932838409038966 0.21485576020561176 -0.004983561320213825 55 53 53 0.63 35 0 36 0 37 0 38 0 39 0 41 0 42 0 43 0 44 0 46 0 47 0 
256 -0.09837851349858784 0.16205537794275993 -0.1110829606586492 55 58 64 0.86 35 0 36 0 37 0 38 0 39 0 41 0 42 0 43 0 44 0 46 0 47 0 48 0 
257 0.522828527389991 -0.10085633301124121 -0.33903974225989475 158 172 183 0.9 35 0 36 0 38 0 39 0 41 0 42 0 43 0 44 0 46 0 47 0 48 0 49 0 51 0 
258 -0.7370216130417726 0.039106753675177755 -0.34193467197645777 126 109 103 1.05 35 0 39 0 42 0 
259 0.8712138081672746 0.3448449606989944 0.24981695119603597 30 25 23 0.28 35 0 36 0 37 0 38 0 39 0 
260 -0.546264402583124 0.05558095046313223 -0.2807682737448729 129 122 120 1.08 35 0 39 0 41 0 44 0 46 0 
261 -0.4873228149028903 0.07757668960217791 -0.24499998348084984 126 122 117 1.01 35 0 37 0 38 0 39 0 41 0 43 0 48 0 
262 -0.5037001990487597 0.061226359901899355 -0.26457761471083585 131 124 119 1.1 35 0 37 0 38 0 39 0 41 0 44 0 46 0 
263 -0.17887172647051197 0.12814233052902596 -0.1361144733756341 118 112 109 0.49 35 0 36 0 37 0 38 0 39 0 41 0 42 0 43 0 44 0 46 0 47 0 
264 1.541725968996524 0.4647735703337518 0.5098620442824525 24 16 12 1.34 35 0 36 0 37 0 38 0 39 0 
265 -0.011684166579583488 0.16215014570158182 -0.0649932653570291 71 69 70 0.93 35 0 36 0 37 0 39 0 41 0 42 0 43 0 44 0 47 0 
266 -0.039929827899645276 0.1490879881880613 -0.08594748170065447 88 86 88 0.64 35 0 36 0 37 0 38 0 39 0 41 0 43 0 48 0 49 0 51 0 
267 -0.07244075598418387 0.14772408594648534 -0.09057130190438545 107 100 98 0.52 35 0 37 0 38 0 39 0 
268 -0.14848440837831756 0.12455967853044543 -0.12085478074246425 83 74 71 0.63 35 0 36 0 37 0 38 0 39 0 41 0 42 0 44 0 
269 0.02953004738384646 0.16475421913237615 -0.047466614868624246 97 88 82 0.24 35 0 37 0 39 0 41 0 
270 -0.6748744341530797 0.018950170017876147 -0.3219086201678245 93 76 75 0.79 35 0 37 0 38 0 39 0 41 0 43 0 46 0 
271 0.19761015914904578 0.18853394427278708 0.012807144673683934 36 35 38 0.73 35 0 36 0 37 0 38 0 39 0 41 0 42 0 43 0 44 0 46 0 47 0 48 0 
272 0.011755118463703473 0.14467393406878842 -0.05564402186847084 101 91 88 0.41 35 0 39 0 42 0 43 0 
273 -0.5312970476326293 0.03901346791311046 -0.25960060854546696 76 78 81 0.71 35 0 37 0 38 0 39 0 41 0 42 0 43 0 44 0 46 0 47 0 48 0 
274 -0.4145962217481758 0.058203775482087675 -0.21714422663385036 55 49 53 0.59 35 0 37 0 38 0 39 0 41 0 42 0 43 0 44 0 46 0 47 0 
275 0.3187001584275642 0.1643402070425763 0.02379802200408787 89 80 77 0.53 35 0 36 0 37 0 38 0 39 0 41 0 
276 -0.09757073618329426 0.11550245744626776 -0.09319958963381958 111 108 107 0.6 35 0 36 0 37 0 38 0 39 0 41 0 44 0 46 0 48 0 
277 0.17037560851686523 0.1547212545263365 0.015462891990423833 65 59 58 0.8 35 0 36 0 37 0 38 0 39 0 41 0 42 0 43 0 44 0 46 0 47 0 48 0 
278 -0.6462394801855196 -0.013215105499374033 -0.2956941569971214 79 76 76 0.8 35 0 37 0 38 0 39 0 41 0 43 0 
279 -0.530515968837652 0.012513560649640723 -0.24590796063927378 91 82 81 0.51 35 0 38 0 39 0 41 0 42 0 44 0 48 0 
280 0.8830880300336101 0.2870309975874496 0.29746980270435075 41 39 38 0.59 35 0 36 0 37 0 38 0 39 0 43 0 
281 0.3194861360190052 0.13756070169830842 0.038424938516854246 83 73 71 0.71 35 0 36 0 37 0 38 0 39 0 41 0 42 0 43 0 44 0 46 0 
282 -0.33394704696108457 0.03806213414114169 -0.17053210524401163 138 127 116 0.59 35 0 36 0 37 0 38 0 39 0 41 0 43 0 44 0 46 0 48 0 
283 0.2771217836797415 0.15410170289840197 0.0594904041496267 33 29 30 0.71 35 0 36 0 37 0 38 0 39 0 41 0 42 0 43 0 
284 -0.39858748250139575 0.0256139984543768 -0.1904751927985051 149 136 125 0.93 35 0 36 0 37 0 38 0 39 0 41 0 42 0 43 0 44 0 46 0 
285 -0.5451210779709483 -0.005306892473261368 -0.2450738759525002 138 132 131 0.67 35 0 37 0 39 0 41 0 42 0 43 0 44 0 46 0 
286 -0.606562417570693 -0.020204841734386456 -0.2714093881775541 94 81 80 0.73 35 0 38 0 39 0 41 0 43 0 
287 0.5873935982439229 0.21737790168948096 0.18770523557510854 40 37 36 0.67 35 0 39 0 42 0 43 0 
288 -0.07329779313018481 0.08081751147688084 -0.06604112096990988 98 93 90 0.49 35 0 36 0 37 0 38 0 39 0 44 0 
289 -0.03336471426036136 0.08608064633339164 -0.05066865094223538 93 87 86 0.4 35 0 36 0 37 0 38 0 39 0 41 0 44 0 46 0 
290 1.5314312619101793 0.030278626541792045 0.07474167982129631 134 137 141 0.47 35 0 36 0 38 0 39 0 
291 -0.22765574530814403 0.043922598374348434 -0.12313518605601215 112 100 95 0.62 35 0 36 0 37 0 39 0 
292 -0.4672799284288822 -0.0024491257407989603 -0.20956250342710736 140 126 117 0.45 35 0 37 0 38 0 39 0 41 0 42 0 43 0 44 0 
293 -0.734342510769521 -0.05605176788631687 -0.30923118318182596 99 82 70 0.46 35 0 37 0 38 0 39 0 
294 1.5281468298002254 0.38601248676165173 0.5510936386414808 70 51 42 0.75 35 0 36 0 37 0 39 0 43 0 48 0 
295 -0.27693269330396686 0.02396931396615566 -0.1300451153398321 124 113 104 1.35 35 0 38 0 39 0 42 0 47 0 
296 -0.4786529302176168 -0.016014767588827458 -0.20910062152173636 148 140 132 0.43 35 0 39 0 42 0 43 0 
297 -0.594610020099662 -0.045095841366075515 -0.2540234552040428 97 95 96 0.58 35 0 37 0 38 0 39 0 41 0 42 0 43 0 44 0 
298 -0.7291918327732163 -0.07414710638684328 -0.3070824208806593 98 76 68 0.35 35 0 38 0 39 0 42 0 
299 -0.5432204698806071 -0.033425381885786185 -0.2302196400176839 88 74 76 0.56 35 0 37 0 39 0 41 0 42 0 44 0 47 0 48 0 
300 0.18752748397742974 0.10193028210830772 0.04554938837933409 64 52 51 0.51 35 0 36 0 37 0 38 0 39 0 41 0 42 0 44 0 46 0 47 0 48 0 
301 0.006816745501856181 0.07089969699038 -0.017392730839761006 128 127 125 0.17 35 0 38 0 39 0 
302 -0.00498258707681376 0.06397820958436697 -0.025942154603543655 90 71 69 0.61 35 0 36 0 37 0 38 0 39 0 41 0 42 0 43 0 44 0 46 0 47 0 
303 -0.08254384356496414 0.04312403100543284 -0.065650997189731 82 76 75 0.42 35 0 37 0 38 0 39 0 44 0 
304 0.5894375623476875 0.1841984692686493 0.2078593704099374 62 45 41 0.7 35 0 39 0 42 0 
305 0.07333646481976275 0.07221851270080533 0.006173152516595559 84 57 55 0.58 35 0 36 0 37 0 38 0 39 0 41 0 42 0 43 0 44 0 46 0 47 0 
306 -0.5014077435938156 -0.04024392735154313 -0.20689874293207033 109 98 95 0.47 35 0 37 0 38 0 39 0 41 0 42 0 43 0 44 0 46 0 47 0 48 0 49 0 51 0 
307 0.12126535958780527 0.07789497047870035 0.030925072650208385 83 75 76 0.93 35 0 36 0 37 0 38 0 39 0 41 0 43 0 44 0 46 0 48 0 
308 0.10194110262434775 0.07197906300882988 0.023577873448149544 94 87 86 0.88 35 0 36 0 37 0 38 0 39 0 41 0 43 0 
309 -0.48183858002133984 -0.035900588184700696 -0.19600637108713803 56 46 46 1.85 35 0 39 0 42 0 
310 0.16966411447572083 0.0854382114082858 0.05272057649980777 74 53 52 0.49 35 0 36 0 37 0 38 0 39 0 41 0 42 0 43 0 
311 0.8446216492953551 0.21191299420500137 0.30921627411491426 50 39 33 0.76 35 0 36 0 37 0 38 0 39 0 
312 -0.30596686282796304 -0.0030157869920558883 -0.11170734950371819 41 36 35 0.82 35 0 36 0 39 0 43 0 
313 1.520349630470366 -0.019790876364890533 0.07908739706017265 126 131 137 1.25 35 0 36 0 37 0 38 0 39 0 41 0 42 0 43 0 44 0 46 0 48 0 
314 -0.389919362677958 -0.0014366719262095956 -0.11188379965920903 20 15 15 0.54 35 0 36 0 37 0 39 0 41 0 42 0 
315 0.2466158612202381 0.08892692949914967 0.08614857309348722 60 50 52 0.6 35 0 36 0 38 0 39 0 41 0 42 0 43 0 
316 1.4933436808381522 0.0012927681017902565 0.11260456470798141 128 129 132 0.63 35 0 36 0 37 0 38 0 39 0 41 0 42 0 
317 1.5508341994479553 0.3464668858286828 0.5948806163730382 73 57 45 0.52 35 0 36 0 37 0 38 0 39 0 
318 -0.6068657771556474 -0.08226173833905014 -0.23943510170772697 115 106 103 0.55 35 0 37 0 38 0 39 0 41 0 43 0 44 0 
319 0.10339560200829156 0.05675170671483605 0.033631318281067024 74 60 60 0.99 35 0 36 0 37 0 38 0 39 0 41 0 43 0 46 0 48 0 
320 0.0048539768189548305 0.03562592654237311 -0.007371714699223153 22 17 19 0.37 35 0 36 0 37 0 38 0 39 0 41 0 42 0 43 0 44 0 46 0 47 0 48 0 49 0 51 0 
321 0.12292266246483508 0.06237945031977045 0.046155312375045776 53 47 48 1.49 35 0 36 0 37 0 38 0 39 0 41 0 42 0 43 0 44 0 46 0 
322 -0.5026865572169568 -0.06720296333908253 -0.1961429958439307 65 65 63 0.47 35 0 39 0 42 0 43 0 47 0 
323 0.2071165270326124 0.0715177169557074 0.07483026435497453 38 36 38 0.85 35 0 36 0 37 0 39 0 41 0 42 0 43 0 44 0 46 0 47 0 48 0 49 0 51 0 
324 -0.500737566346968 -0.043826582227929387 -0.16089104941141152 39 38 43 0.3 35 0 38 0 39 0 
325 -0.7373154888664286 -0.11254982047715144 -0.2797795095296274 138 120 114 0.43 35 0 37 0 39 0 44 0 
326 -0.2449242179712312 -0.024844243576078215 -0.09635427719926848 86 84 83 0.98 35 0 36 0 37 0 39 0 42 0 43 0 44 0 47 0 48 0 
327 0.5055684379140166 0.11654443830700924 0.19004744130245488 35 22 19 0.99 35 0 39 0 41 0 42 0 43 0 44 0 46 0 47 0 48 0 
328 -0.08556507267559244 -0.004699804187616327 -0.037588746182252164 54 51 53 0.07 35 0 37 0 39 0 
329 0.9506128210094398 0.1908660292364008 0.3644258196078596 70 45 35 0.4 35 0 36 0 37 0 39 0 
330 0.11561512934964191 0.0640468018450331 0.09213441707616066 42 38 36 0.31 35 0 37 0 38 0 39 0 41 0 42 0 43 0 44 0 46 0 47 0 
331 0.316384801957147 0.04013053092388218 0.08242883369633103 88 74 71 0.63 35 0 37 0 38 0 39 0 41 0 42 0 44 0 46 0 47 0 
332 0.506055914968816 0.10082233477143783 0.20948315920639904 52 39 34 0.54 35 0 39 0 41 0 44 0 
333 0.9749103256888013 -0.14790108769755272 -0.08677552135040112 99 103 106 3.64 35 0 37 0 38 0 39 0 41 0 42 0 43 0 48 0 
334 0.614443532481903 0.14474990043934866 0.29271217749521794 41 36 32 0.47 36 0 37 0 41 0 44 0 
335 -0.3908498815397752 -0.0502190301079362 -0.09270242564472952 105 120 134 0.64 35 0 36 0 38 0 39 0 41 0 42 0 43 0 44 0 46 0 48 0 
336 1.1972334382783114 0.2182618541653771 0.4666577649199002 26 21 19 0.97 35 0 39 0 42 0 47 0 
337 0.2753972500642918 0.043132765886035526 0.11245604344988314 37 32 31 0.43 35 0 36 0 37 0 38 0 39 0 41 0 42 0 43 0 44 0 46 0 47 0 
338 0.08194536466677493 0.058986872235610346 0.11603013043406052 44 49 49 0.85 35 0 36 0 37 0 38 0 39 0 41 0 42 0 44 0 
339 -0.5290834110926688 -0.11403406660737168 -0.18645099364767725 106 102 100 0.79 35 0 37 0 38 0 39 0 41 0 42 0 43 0 
340 0.9561024715110764 0.16725673493413495 0.3883375232638997 64 51 45 0.68 35 0 37 0 39 0 
341 1.4834202474817395 -0.01699369097117344 0.1825868032365433 77 80 77 1.16 35 0 37 0 39 0 
342 0.11408783564647851 0.032886439445766566 0.10924111607909093 111 122 133 0.46 35 0 36 0 38 0 39 0 44 0 
343 0.05439853907122383 0.024427149796559203 0.09038990613570319 85 96 108 0.68 35 0 37 0 39 0 41 0 42 0 
344 -0.274014108252401 -0.08393705231192532 -0.08724458647848743 83 69 66 0.97 35 0 36 0 37 0 38 0 39 0 41 0 44 0 
345 0.083530651202117 0.03103340546994067 0.12294168127506766 49 64 67 0.47 35 0 36 0 37 0 39 0 
346 1.5955649689964855 0.29620565501861185 0.6823447986407498 42 35 28 0.39 36 0 37 0 39 0 
347 -0.44960460039312866 -0.09036158548252558 -0.10127970977907341 117 131 147 0.57 35 0 37 0 38 0 39 0 41 0 42 0 43 0 44 0 46 0 48 0 
348 1.6584877440748023 0.30950650350126485 0.7104843250626605 28 21 17 0.48 36 0 37 0 38 0 39 0 43 0 44 0 
349 0.3370800730578672 -0.0012934930304862174 0.11777055427139316 83 78 73 0.81 35 0 36 0 37 0 38 0 39 0 
350 -0.5991665742978842 -0.15758876858248555 -0.2034464900436801 94 79 79 0.44 35 0 38 0 39 0 41 0 42 0 46 0 47 0 
351 -0.5006811697369435 -0.1416093211866183 -0.16767124222252394 73 61 61 0.37 35 0 38 0 39 0 
352 -0.7322584525416813 -0.19229835521647942 -0.25391125630702116 74 57 57 0.41 35 0 37 0 38 0 39 0 41 0 42 0 
353 0.250239577246548 0.0005502345509833945 0.126308798601382 46 41 40 1.15 35 0 36 0 37 0 38 0 39 0 41 0 42 0 43 0 44 0 46 0 48 0 
354 0.02705898898193404 -0.019832509827122133 0.08067607954240219 88 93 99 0.92 35 0 36 0 37 0 38 0 39 0 
355 0.31507495639649813 -0.01601021960364564 0.11931396339742717 134 129 122 0.43 35 0 38 0 39 0 
356 0.11331071264339154 1.4337368899178249e-05 0.12158711256394394 122 133 147 0.42 35 0 36 0 37 0 38 0 39 0 43 0 44 0 
357 1.0299225666838496 -0.1933925578293429 -0.07130237021721286 134 141 149 1.09 35 0 36 0 37 0 38 0 39 0 43 0 
358 -0.16956139595900155 -0.09161568581039574 -0.030326098917192068 56 57 61 0.52 35 0 36 0 37 0 38 0 39 0 41 0 42 0 43 0 44 0 46 0 
359 -0.6522028913731477 -0.18833427272014874 -0.2112027330937829 110 92 90 0.93 35 0 37 0 38 0 39 0 41 0 42 0 44 0 46 0 47 0 
360 -0.45092207678679586 -0.12154769440496276 -0.0846755783287152 125 142 158 0.56 35 0 37 0 39 0 41 0 42 0 43 0 44 0 
361 0.34149701139770383 -0.02186896102717205 0.13488708325229903 82 71 66 2.47 35 0 36 0 37 0 38 0 39 0 
362 0.5614472812895315 0.04299085155702001 0.26356733320374803 85 91 96 4.04 35 0 39 0 41 0 42 0 43 0 44 0 46 0 
363 0.0809949510668091 -0.01604581691715669 0.12705961371339292 67 84 90 1.86 35 0 36 0 38 0 39 0 41 0 
364 0.9545505222343116 0.10020281700762743 0.4100324915913578 68 56 52 0.62 35 0 36 0 39 0 44 0 48 0 
365 0.11251380518519372 -0.03313841015390355 0.1378772762531968 133 145 157 0.63 35 0 36 0 37 0 38 0 39 0 42 0 43 0 44 0 
366 1.4925443012535125 0.17852567386192997 0.6139581645288472 98 97 96 2.11 35 0 36 0 38 0 39 0 
367 1.5807006624041446 0.22639328052251495 0.700451887465559 85 87 87 2.71 35 0 36 0 37 0 38 0 39 0 43 0 
368 -0.22246856615981803 -0.13002662261559478 -0.027655062395723684 100 90 88 1.67 35 0 36 0 38 0 39 0 41 0 44 0 46 0 
369 0.4816437290028537 -0.27194567925860363 -0.18651558503934607 46 44 47 0.9 35 0 37 0 39 0 44 0 
370 0.33358552177807865 -0.05073159982446575 0.1467943391711417 102 93 87 0.58 35 0 36 0 37 0 38 0 39 0 
371 0.2037270600231162 -0.049835141762137006 0.14113992454188717 54 46 48 1.21 35 0 36 0 37 0 38 0 39 0 41 0 44 0 46 0 48 0 
372 -0.45106792436544874 -0.15374667791166813 -0.06967094012834263 139 154 165 0.65 35 0 37 0 38 0 39 0 41 0 42 0 43 0 44 0 46 0 47 0 
373 1.6123039008893114 -0.12045963371915429 0.17322400623338452 68 54 44 3.55 35 0 37 0 39 0 
374 0.5952866431991397 0.032132366247137625 0.31419084918843976 80 93 99 1.01 35 0 41 0 43 0 44 0 46 0 
375 0.11301733379049717 -0.0480129700878046 0.14443209501699028 127 141 151 0.66 35 0 36 0 37 0 39 0 41 0 42 0 44 0 
376 -0.3921821090426154 -0.146016173611711 -0.04900088654782464 151 164 175 0.37 35 0 36 0 37 0 39 0 41 0 42 0 43 0 44 0 46 0 47 0 48 0 
377 0.05542075431123772 -0.09014443415276828 0.10489784841115823 106 116 127 3.42 35 0 36 0 37 0 38 0 39 0 41 0 42 0 43 0 44 0 48 0 49 0 51 0 
378 0.02888483997104152 -0.0897177898646399 0.10151046968859379 85 85 92 2.04 35 0 37 0 38 0 39 0 
379 0.0014805655720327993 -0.10969993631825085 0.06931316062733561 60 57 59 0.42 35 0 38 0 39 0 41 0 43 0 44 0 
380 -0.026422469850021835 -0.10159564120432195 0.07545133236476609 82 73 71 1.48 35 0 36 0 37 0 38 0 39 0 41 0 42 0 
381 0.3140269298373778 -0.08302585330705929 0.142476469291965 129 119 115 0.85 35 0 36 0 38 0 39 0 42 0 
382 0.9841054754298756 0.05535743913771217 0.42894837435436417 58 50 51 0.79 35 0 36 0 39 0 
383 -0.5068586883605382 -0.2165037447868275 -0.12665588623521074 83 81 81 0.89 35 0 37 0 38 0 39 0 41 0 42 0 43 0 44 0 46 0 47 0 48 0 
384 -0.6272108674656536 -0.24128644536282717 -0.18057295155511333 90 49 46 0.44 35 0 39 0 42 0 
385 -0.6663321548956591 -0.2472403337191703 -0.19191906775600853 88 61 58 0.51 35 0 37 0 38 0 39 0 41 0 42 0 44 0 46 0 
386 0.31279021846077715 -0.0932058984355436 0.15313525566755926 130 121 115 0.85 35 0 36 0 38 0 39 0 
387 -0.3396489677584529 -0.16030898262137555 -0.0008406847901054615 95 104 120 0.81 35 0 38 0 39 0 
388 -0.5073181984580173 -0.23934961694788148 -0.11574870525874492 61 56 58 0.69 35 0 37 0 38 0 39 0 41 0 42 0 43 0 44 0 47 0 48 0 51 0 
389 -0.5444230168801227 -0.2564412296027133 -0.13973947943645748 104 84 80 0.91 35 0 38 0 39 0 
390 0.312772261714944 -0.11221303756731706 0.15727478137178175 88 73 70 0.7 35 0 37 0 38 0 39 0 41 0 43 0 46 0 
391 -0.034873795159445 -0.15484250782625641 0.0646444083247606 111 104 99 0.96 35 0 39 0 42 0 43 0 44 0 
392 -0.6261722308640234 -0.2774784407979714 -0.158035480403093 110 98 94 0.79 35 0 37 0 39 0 41 0 42 0 43 0 44 0 46 0 47 0 48 0 
393 0.8786892551820636 0.009580024832007192 0.42861625081158905 35 35 33 0.55 35 0 36 0 37 0 38 0 39 0 
394 0.24074142953465538 -0.11080729397582208 0.17761344372413024 81 78 76 1.06 35 0 36 0 37 0 39 0 41 0 43 0 
395 -0.7391310539633826 -0.3012339617278287 -0.19919829497412533 41 32 30 0.91 35 0 37 0 39 0 42 0 47 0 
396 0.08013751665211599 -0.10494079437970098 0.1874069425407454 34 46 51 0.45 35 0 36 0 37 0 38 0 39 0 41 0 42 0 44 0 
397 -0.3948839244979465 -0.21187429324107432 -0.015154967039752387 150 166 181 0.55 35 0 36 0 37 0 38 0 39 0 41 0 42 0 43 0 44 0 46 0 47 0 48 0 
398 -0.4538243416396406 -0.2209640247834163 -0.03764570513850529 150 163 178 0.54 35 0 37 0 38 0 39 0 41 0 42 0 43 0 44 0 
399 1.5326750901861341 -0.1929979165130108 0.16291901205495152 124 126 130 0.89 35 0 36 0 37 0 38 0 39 0 41 0 
400 1.5044942772923569 -0.18221055103392492 0.18238997826935832 137 137 141 0.47 35 0 36 0 39 0 
401 -0.7039982083248768 -0.31477990470618844 -0.17770409640254736 108 105 103 0.53 35 0 37 0 38 0 39 0 41 0 42 0 43 0 44 0 46 0 47 0 48 0 
402 1.472152853427304 0.06576280122203894 0.6305244509565079 93 84 75 2.12 35 0 36 0 37 0 38 0 39 0 
403 0.07800631173214356 -0.12361380154828001 0.1905516207698601 130 147 163 0.68 35 0 37 0 38 0 39 0 
404 0.05045034209804211 -0.13937572173053098 0.16345701678473978 123 139 156 0.58 35 0 36 0 37 0 38 0 39 0 41 0 42 0 43 0 
405 0.10791750236094089 -0.13124580735229913 0.18652981478830077 130 144 159 0.54 35 0 36 0 37 0 38 0 39 0 41 0 42 0 43 0 44 0 47 0 
406 -0.5406589298219715 -0.2870673883789859 -0.11185813107450993 67 56 55 0.63 35 0 37 0 38 0 39 0 41 0 42 0 43 0 44 0 46 0 47 0 48 0 
407 1.198593451051172 0.033863959578297034 0.5663602075040783 39 29 27 0.7 35 0 39 0 42 0 
408 0.2995827417528547 -0.1364777258118448 0.19837936090907782 63 62 63 1.27 35 0 36 0 39 0 41 0 42 0 46 0 
409 0.24416981268552035 -0.1358832890060639 0.20051998375585112 87 78 76 0.79 35 0 37 0 38 0 39 0 42 0 
410 1.610028330640357 -0.19403529472459125 0.2098700276538613 86 71 65 2.78 35 0 36 0 39 0 
411 0.607905317083766 -0.0511555247974758 0.3881514501407384 111 119 128 0.58 35 0 36 0 37 0 41 0 43 0 44 0 46 0 
412 0.269672616150854 -0.14892016829301802 0.2014499032066458 42 35 35 0.51 35 0 39 0 44 0 
