# 3D point list with one line of data per point:
#   POINT3D_ID, X, Y, Z, R, G, B, ERROR, TRACK[] as (IMAGE_ID, POINT2D_IDX)
# Number of points: 459, mean track length: 4.72
800 2.3719979748281697 -0.5849547181006491 -0.15906499230405147 101 104 103 0.37 28 0 30 0 32 0 
801 0.7094241639075329 -0.27924331845729156 -0.1750190962542545 98 83 71 0.34 28 0 29 0 31 0 
802 1.3195959478164547 -0.06803534894756635 0.1577491004707966 137 156 160 0.67 28 0 29 0 30 0 
803 -0.8342160743652685 0.009759084623390313 -0.19203377281555123 88 65 65 0.73 28 0 31 0 32 0 33 0 34 0 36 0 37 0 38 0 
804 0.07971062677511287 -0.21872757670316273 -0.2322038363771446 95 107 120 1.04 28 0 29 0 30 0 31 0 32 0 33 0 34 0 36 0 37 0 
805 0.7592103313267897 0.7905279655421623 0.22539371700391275 142 103 96 0.61 28 0 29 0 30 0 
806 0.6373513408417806 0.8147179136632535 0.24131229361018136 115 84 81 0.26 28 0 29 0 30 0 
807 0.18528567078579328 0.9109321371573348 0.29288870492703334 106 74 74 0.91 28 0 29 0 30 0 
808 0.12431055924663434 0.8800670286323468 0.23412236831072553 87 76 77 3.39 28 0 31 0 33 0 34 0 
809 0.4903115755232409 0.7951566457456504 0.20094062433596693 105 88 88 0.64 28 0 30 0 31 0 
810 0.7972203731097913 0.6136369359839092 0.0596217989818717 74 59 59 0.22 28 0 29 0 31 0 
811 1.3593596709432412 0.47374177247577454 0.0646996380140229 45 36 40 0.96 28 0 30 0 32 0 34 0 
812 -0.022980164780123047 0.6134930211352642 0.0014590635006745956 118 103 103 0.38 28 0 30 0 31 0 
813 1.0188137687243235 0.4504007581562034 0.02361020749081566 43 47 56 0.24 28 0 30 0 32 0 34 0 
814 1.3039400448651268 0.3769439168445988 0.011498032058343988 47 41 43 0.87 28 0 30 0 32 0 
815 0.06728765476235465 -0.3111904023207481 -0.15987042932899198 56 65 73 0.83 28 0 29 0 31 0 32 0 33 0 34 0 35 0 36 0 37 0 
816 0.4734140221369078 -0.33704791071285406 -0.10324066956187294 24 15 15 0.54 28 0 29 0 31 0 
817 1.364558485834945 -0.14484280295192686 0.25643335244418963 147 155 162 1.47 28 0 30 0 32 0 34 0 
818 -0.05721250790461618 -0.7948942835654904 0.2623053786465518 57 48 41 0.24 28 0 30 0 31 0 34 0 
819 -0.31247050434268486 -0.6574941407245342 0.2537646851097103 62 47 37 1.16 28 0 29 0 30 0 31 0 
820 0.8657466337654618 -0.04645410281845841 0.29594664183407426 171 175 174 0.64 28 0 29 0 31 0 
821 0.08657265777564699 -0.13709119441316348 -0.30117411296576246 68 85 99 0.94 28 0 30 0 31 0 32 0 33 0 35 0 36 0 37 0 
822 0.6895619282369105 -0.20384456217550606 -0.252418488114296 102 90 86 0.66 28 0 30 0 31 0 32 0 33 0 34 0 35 0 
823 -0.8507402991522732 0.1022036132602393 -0.2636193755727312 83 73 72 1.97 28 0 31 0 33 0 34 0 35 0 36 0 37 0 38 0 
824 0.7956964489634233 0.14247463711679542 0.08375472965197617 96 100 100 0.18 28 0 29 0 31 0 
825 1.9902109035652622 -0.7712177607372273 0.010679158981506842 116 112 111 0.35 28 0 30 0 32 0 
826 -0.637863282754399 0.01596209461735687 -0.32504861125645346 64 70 71 0.4 28 0 29 0 30 0 33 0 35 0 38 0 
827 -0.7683233144341708 0.08652549933567177 -0.26951478138631646 106 85 81 0.44 28 0 31 0 32 0 36 0 
828 0.0731273737640685 -0.3518665576849816 -0.047355344389713006 98 80 71 0.6 28 0 29 0 30 0 31 0 32 0 33 0 34 0 35 0 36 0 37 0 
829 1.6714946333843477 0.3521986947086845 -0.04082539448024569 19 22 17 0.38 28 0 30 0 32 0 
830 1.5694481276250023 0.2572516282498405 -0.029031312124292108 64 45 45 3.14 28 0 30 0 32 0 
831 -0.6433589781029609 0.08891386687305058 -0.2828438334710245 56 49 47 1.14 28 0 29 0 31 0 32 0 34 0 36 0 
832 0.6664229229591395 -0.3876681623710584 -0.10355725017755313 89 71 61 0.73 28 0 29 0 31 0 33 0 34 0 35 0 
833 2.3206058382176025 -0.8861191130037288 0.06140076465817379 133 133 136 0.88 28 0 30 0 32 0 34 0 
834 -0.2864150664324281 0.5397491828216956 0.02886494940678974 27 30 35 0.39 28 0 29 0 30 0 
835 -0.006771546902793413 -0.8470057332467764 0.27268221430930384 30 29 25 0.4 28 0 30 0 31 0 
836 -0.07709858929672281 0.817915881261862 0.14722608407845417 104 64 63 0.33 28 0 30 0 31 0 
837 -0.028959458657150217 -0.3033317525736312 -0.08569482447435994 39 27 24 1.14 28 0 31 0 32 0 34 0 35 0 36 0 
838 0.45394624336027123 -0.38135750650060257 -0.06608073963114469 71 56 48 0.78 28 0 29 0 31 0 
839 -0.8464808017557683 -0.016986552415779732 -0.17876883577044222 115 102 98 1.71 28 0 29 0 31 0 32 0 35 0 36 0 
840 0.04482582986028549 0.8257011650226614 0.1710212516731483 92 68 66 0.72 28 0 29 0 30 0 32 0 
841 -0.22476335651476753 0.03533401126776725 -0.3977282581357454 85 80 75 0.24 28 0 29 0 30 0 
842 1.3694128564675623 -0.18546088840997715 -0.31257452606738445 76 58 54 0.55 28 0 29 0 30 0 32 0 34 0 35 0 
843 -0.0010758957503002042 0.839814170287633 0.16916437499201498 120 80 79 1.6 28 0 30 0 31 0 34 0 
844 0.7015794390153443 -0.10775104888901404 -0.32155755423387844 115 108 99 0.57 28 0 29 0 31 0 32 0 33 0 35 0 
845 2.36449409089054 -0.4716176501527076 -0.2234964934907565 119 92 83 0.19 28 0 30 0 32 0 
846 2.38386834454342 -0.3731310122478744 -0.3337980188721563 94 91 90 0.44 28 0 30 0 32 0 34 0 
847 0.6440434754498804 -0.2038345954046967 -0.24853628605969325 44 42 41 0.57 28 0 29 0 30 0 31 0 33 0 35 0 
848 2.2573144572234973 -1.028016649656982 0.09966324600351029 182 171 160 1.93 28 0 30 0 34 0 
849 2.462073444233223 -1.0302212050751445 0.11006327776073388 172 159 143 0.56 28 0 30 0 32 0 
850 -0.19468553026811264 0.015249731446784487 -0.24799723963641018 98 86 70 0.47 28 0 30 0 31 0 
851 -0.7355282206870561 0.05838171109014045 -0.24955138391911869 113 106 108 1.36 28 0 29 0 31 0 33 0 34 0 35 0 36 0 37 0 38 0 
852 1.6686816886402793 0.3150677945860666 -0.017655919050751145 16 24 20 0.2 28 0 30 0 34 0 
853 0.7536536765461266 -0.020953590739588246 -0.4045450870037145 131 115 104 0.7 28 0 29 0 30 0 31 0 33 0 
854 0.7714820100718853 0.369353885420592 0.12529789065018193 71 84 98 0.48 28 0 30 0 33 0 34 0 
855 1.283798614411048 0.4306793274758033 -0.023846533336101206 123 115 117 1.72 28 0 29 0 30 0 32 0 
856 0.9971397637896902 0.614293477636321 0.06813165278306887 21 21 21 0.88 28 0 30 0 32 0 34 0 
857 0.001447729421799937 -0.11680087313257492 -0.3158226974192444 70 98 104 0.39 28 0 29 0 31 0 33 0 34 0 
858 0.15670540731189803 0.7580822758795175 0.10859603380779892 96 77 77 1.04 28 0 31 0 33 0 
859 1.0291710673800183 0.4081427261205729 0.024210885353842304 68 60 63 0.59 28 0 30 0 32 0 
860 0.5198741804675355 -0.524878555413161 0.052680189520934895 43 32 23 1.13 28 0 29 0 31 0 33 0 
861 0.459198317666395 -0.8535802481195813 0.3961853574392725 53 51 41 1.06 28 0 30 0 31 0 32 0 
862 2.2033077377742396 -0.8615318517549888 0.05524620515844836 122 118 109 0.57 28 0 30 0 34 0 
863 -0.5885185202890191 -0.10523046236196798 -0.18847110961174873 133 147 162 1.34 28 0 30 0 31 0 32 0 33 0 35 0 36 0 37 0 38 0 
864 -0.20390916213286514 0.7561192300302298 0.1056636404407596 58 62 69 1.72 28 0 29 0 31 0 32 0 35 0 36 0 
865 -0.24256834922742776 -0.33542685069398337 0.006978973662183363 67 50 38 0.47 28 0 29 0 30 0 
866 -0.23735617080905547 0.14298475672394262 0.3316119196402628 170 181 191 0.43 28 0 30 0 33 0 34 0 35 0 36 0 38 0 
867 0.2956852839483699 0.4635088031827156 0.008234190866057367 31 50 51 0.51 28 0 30 0 31 0 
868 0.8847925956765806 -0.1277571089516737 0.33885667586503476 173 158 142 0.81 28 0 29 0 30 0 31 0 36 0 
869 -0.022642668145852918 -0.31153296541487296 -0.05325262937575148 65 44 39 1.21 28 0 31 0 32 0 33 0 34 0 35 0 36 0 
870 0.5041685541600383 -0.70313140317613 0.1938925556734855 35 29 23 2.84 28 0 29 0 30 0 
871 0.453975478162092 0.6812913058743199 0.06442907921323482 15 14 13 1.17 28 0 29 0 31 0 35 0 
872 0.528800393548534 -0.9071273208471506 0.2657483943234805 50 49 44 0.33 28 0 29 0 31 0 
873 0.6452760213734992 -0.17723012694964813 -0.26145937990742385 31 26 26 0.64 28 0 29 0 30 0 31 0 32 0 35 0 
874 0.2625431700900311 0.056301754134265414 0.3039414783672688 165 176 185 0.68 28 0 30 0 31 0 32 0 33 0 34 0 36 0 37 0 
875 0.5550879787689635 -0.3732171890158424 -0.05109999981835578 66 47 37 0.9 28 0 31 0 33 0 
876 -0.24459163498152003 0.716821169941119 0.055624866671429185 53 58 61 3.64 28 0 29 0 31 0 
877 0.2151327808012588 0.8751286763869396 0.25323158841063875 120 101 101 1.21 29 0 30 0 31 0 32 0 33 0 34 0 
878 0.10116002108446603 0.8882280674238233 0.23462352877506765 97 79 79 2.91 29 0 31 0 32 0 
879 -0.09742387055724289 0.9455483152997778 0.28865848514602 101 68 71 1.09 29 0 30 0 31 0 32 0 
880 -0.1733639810635622 0.9700918341750274 0.3067118041563023 92 71 71 0.43 29 0 31 0 32 0 33 0 34 0 
881 0.547516141294788 0.7777009659700872 0.19018134326206038 109 84 77 0.53 29 0 30 0 34 0 
882 0.5996911529685235 0.7398569913157248 0.15580592484584865 77 44 39 0.65 29 0 30 0 31 0 32 0 33 0 35 0 36 0 
883 -0.04087721658032145 0.8542920388829432 0.18096749203586227 87 78 78 3.24 29 0 30 0 31 0 33 0 35 0 36 0 
884 0.05065096342191261 0.8531471369355997 0.20572063715346534 98 72 70 0.36 29 0 30 0 31 0 
885 0.2223432019679775 0.7895214080208796 0.15629617591596345 110 71 67 0.51 29 0 31 0 32 0 
886 -0.34323192734701824 0.9419081853631582 0.24667375886415155 91 67 70 0.37 29 0 31 0 33 0 34 0 
887 0.4398061665027046 0.7525546956625758 0.15599884417638166 75 70 69 2.28 29 0 30 0 31 0 33 0 34 0 35 0 36 0 
888 -0.2308857573284251 0.8880359475500955 0.2050277645028612 77 36 37 0.26 29 0 33 0 34 0 35 0 36 0 
889 -0.5661853560327832 0.9046001360987331 0.1355991533389288 102 81 87 4.26 29 0 31 0 33 0 35 0 
890 -0.29816245455149826 0.8539902309533235 0.1442586879705342 114 78 79 0.83 29 0 33 0 34 0 
891 -0.3761023130912745 0.8702361749194462 0.16160273431935146 73 63 63 0.64 29 0 33 0 35 0 36 0 
892 -0.0428185521412488 0.8005229995973556 0.1389848095850693 80 53 52 3.4 29 0 30 0 32 0 33 0 34 0 35 0 36 0 
893 -0.5170712585342228 0.8850559364767149 0.1513816754579197 73 61 62 0.69 29 0 31 0 33 0 34 0 35 0 36 0 
894 -0.3719448877003608 0.800946663826719 0.0809429865624548 87 59 57 0.45 29 0 31 0 32 0 33 0 34 0 35 0 36 0 
895 -0.4142014796073985 0.8093529853464086 0.08203171684659705 76 59 56 0.44 29 0 31 0 32 0 33 0 34 0 35 0 36 0 
896 1.0615076115242577 0.625052953702817 0.17610134537086408 20 28 35 0.53 29 0 30 0 32 0 34 0 
897 -0.714921600761554 0.8751638256718207 0.11530194869702415 62 42 40 0.39 29 0 31 0 33 0 35 0 
898 -0.48041067833865925 0.8169649335159496 0.08168303700912338 44 40 39 0.44 29 0 31 0 33 0 35 0 
899 -0.7302222014688036 0.8823838308176947 0.11575349942736968 56 58 47 0.15 29 0 31 0 33 0 35 0 
900 -0.7368885804746637 0.898007929989249 0.14414101044142502 72 53 52 1.54 29 0 31 0 33 0 35 0 36 0 
901 -0.44731501329753953 0.8228378601650993 0.09908052413722146 57 47 46 0.94 29 0 31 0 33 0 35 0 36 0 
902 0.6441333579095904 0.5837901109616316 0.01782108073282329 117 109 112 0.92 28 0 29 0 30 0 31 0 32 0 
903 -0.9037363217690346 0.9082884085835693 0.1197644916606887 77 67 70 0.95 29 0 31 0 33 0 35 0 
904 -0.7863150429742056 0.8921610951569535 0.12439399653115302 42 39 39 0.4 29 0 31 0 33 0 35 0 
905 -0.9142641292088742 0.8821585577806051 0.08370761265075122 78 63 70 0.13 29 0 31 0 33 0 
906 0.766593857614875 0.5603911565980014 0.008959591365621855 68 61 62 0.62 28 0 29 0 30 0 31 0 
907 -0.671614533123683 0.846687291189827 0.08627344224202871 100 68 70 0.4 29 0 31 0 33 0 35 0 36 0 
908 -0.6914449368955682 0.8528331247325042 0.0916623609344086 81 57 58 0.79 29 0 31 0 33 0 35 0 36 0 
909 -0.48345464602723887 0.8035119459304484 0.09215277318147064 20 21 19 0.53 29 0 31 0 33 0 34 0 35 0 
910 -0.7575192487306868 0.8719939320726805 0.12479073841663857 34 36 25 0.58 29 0 31 0 33 0 35 0 
911 -0.4173376586425088 0.7940110073609213 0.09275294000995049 43 38 36 0.52 29 0 31 0 32 0 33 0 34 0 35 0 36 0 
912 -0.5039153339574001 0.8080655787505241 0.09335758303216612 26 25 23 0.7 29 0 31 0 33 0 34 0 35 0 36 0 
913 -0.3752968192758128 0.7874773801536968 0.08974709451353224 102 105 101 0.62 29 0 31 0 32 0 33 0 34 0 35 0 36 0 
914 -0.39635301085508023 0.7912261910822099 0.0918228281101835 66 74 72 0.58 29 0 31 0 32 0 33 0 34 0 35 0 36 0 
915 -0.706728303805157 0.8442212155030527 0.10555858131915374 12 14 7 0.36 29 0 31 0 33 0 35 0 36 0 
916 -0.6099726395883003 0.8243640010135141 0.09614346384263739 98 93 93 0.27 29 0 31 0 33 0 35 0 36 0 
917 -0.728933488710438 0.8504844279622467 0.10941012367571867 31 43 25 0.98 29 0 31 0 33 0 35 0 36 0 
918 -0.9563391402765027 0.8741212851674022 0.10033981330925812 70 75 78 0.37 29 0 31 0 33 0 35 0 
919 -0.3526849766429817 0.775520348846631 0.10501624584831593 93 90 93 0.82 29 0 31 0 32 0 36 0 
920 0.793179197411189 0.5773757075229856 0.07720052382755438 36 50 59 2.13 29 0 31 0 32 0 33 0 34 0 35 0 36 0 38 0 
921 0.7632855028097809 0.5556249360777218 0.029229722989497442 55 47 47 0.5 29 0 31 0 33 0 
922 -0.1269525198550993 0.7362912118864436 0.10121655740692492 132 131 135 0.34 29 0 33 0 34 0 
923 -0.3629986180839049 0.7272723307547183 0.04135795285257582 70 89 92 0.22 29 0 31 0 32 0 
924 -0.9790407609365033 0.8764542556508631 0.1015765744190732 131 133 135 0.36 29 0 31 0 33 0 35 0 
925 -0.9278695133158537 0.8562700955102208 0.07709251408890172 66 57 55 0.67 29 0 31 0 33 0 
926 -0.7271424914911881 0.8317085038797002 0.11096829563745325 80 98 57 0.16 29 0 31 0 33 0 36 0 
927 -0.8315287829273394 0.8284792685323529 0.1099395714200323 50 66 25 0.5 29 0 31 0 33 0 35 0 
928 -0.4135785241394353 0.7134826740995422 0.043489193236864176 20 18 17 1.03 29 0 31 0 36 0 
929 -0.49415986748621354 0.7929934543487612 0.15093007787696233 32 39 22 0.47 29 0 31 0 33 0 34 0 
930 -0.3647105339211919 0.7028636234143352 0.0642985578348555 68 67 72 0.7 29 0 31 0 32 0 33 0 34 0 35 0 36 0 38 0 
931 0.14797638091791493 0.5696045279259639 0.00048376353041013065 69 60 66 0.63 28 0 29 0 30 0 31 0 32 0 33 0 34 0 
932 0.2886645780444751 0.9136673378060863 0.3078832546427851 101 76 76 0.77 29 0 30 0 31 0 32 0 
933 0.2621920201640817 0.9287754796270292 0.32571782207394684 72 53 50 0.58 29 0 30 0 31 0 32 0 33 0 34 0 36 0 
934 -0.5457014576944981 0.7829087712014858 0.17264450833722889 38 49 35 0.67 29 0 31 0 33 0 35 0 38 0 
935 -1.0404194136155798 0.7894916420702621 0.04701003920571767 64 85 43 1.05 29 0 31 0 33 0 35 0 
936 0.8435620807529685 0.5444391887680322 0.1237896795044201 38 39 44 1.46 29 0 30 0 31 0 32 0 
937 -0.5001530461196404 0.7660913773939574 0.18058141279448636 31 46 39 0.29 29 0 31 0 34 0 35 0 
938 0.021599719857976263 0.5305380203556385 -0.04583380847606333 111 100 104 0.53 29 0 30 0 31 0 32 0 33 0 
939 -0.4679022673612757 0.601380595330354 -0.0673620088692296 26 26 26 0.37 29 0 31 0 32 0 33 0 
940 -1.2433556383391038 0.7248747383806352 -0.0469097847968758 90 109 73 0.36 29 0 31 0 33 0 35 0 
941 -1.2833324315021957 0.7206522380987027 -0.05280715935791325 86 85 93 0.85 29 0 31 0 33 0 35 0 
942 -1.0124535448498349 0.661598389040773 -0.033680113093834785 97 97 107 0.32 29 0 31 0 33 0 35 0 38 0 
943 -1.288825548088077 0.702246241758444 -0.038389424994959565 104 105 117 0.94 29 0 31 0 33 0 35 0 
944 -0.4972083537201196 0.738930592977748 0.20603187447104154 35 49 33 0.46 29 0 31 0 33 0 34 0 35 0 36 0 38 0 
945 0.4615952928540306 0.46896572791746116 0.045793609748095654 93 93 95 0.67 28 0 29 0 30 0 31 0 32 0 33 0 34 0 36 0 
946 -0.5814634176884347 0.7408506747302203 0.20501986009697204 40 53 40 0.36 29 0 31 0 33 0 35 0 
947 -1.005943655974419 0.6445604952014893 -0.02162828910345105 48 47 50 0.39 29 0 31 0 33 0 35 0 38 0 
948 -0.8803631233367439 0.6230339799722387 -0.02731868480331079 80 78 83 0.43 29 0 31 0 33 0 35 0 38 0 
949 -0.9188785396426153 0.6299196359584184 -0.025761031518305777 79 64 67 0.06 29 0 31 0 33 0 35 0 
950 -1.0958484865620366 0.650399421971171 -0.022912565563783627 93 90 99 0.87 29 0 31 0 33 0 35 0 
951 -1.1851620956108453 0.6687918129155163 -0.017393521205702922 36 34 36 0.45 29 0 31 0 33 0 35 0 37 0 38 0 
952 -1.2950412758486043 0.6812817163552011 -0.02488460174404372 87 93 101 0.32 29 0 31 0 33 0 35 0 
953 -0.44138428869656443 0.6864987279509499 0.19368912059584964 22 28 23 1.14 29 0 31 0 33 0 36 0 37 0 
954 0.21980694912714557 0.4017295952626221 -0.07516875738754558 33 34 38 0.53 30 0 31 0 32 0 33 0 34 0 35 0 36 0 37 0 
955 -1.0498069762927995 0.6408166305163597 -0.008082742544188837 83 78 83 0.44 29 0 31 0 33 0 35 0 37 0 38 0 
956 -0.6859918000579294 0.6722119974065838 0.1433243306900912 60 71 66 2.25 29 0 31 0 33 0 35 0 36 0 37 0 38 0 
957 -0.2915748300466745 0.4918356010072499 -0.014043667654832892 71 62 61 1.57 29 0 33 0 34 0 36 0 38 0 
958 -1.0091693964308144 0.6191940942177984 0.0013923951632668352 115 107 117 0.98 29 0 31 0 33 0 35 0 37 0 38 0 
959 -0.06048214383128886 0.6010767587829228 0.18600560239195907 57 64 73 3.8 29 0 30 0 31 0 32 0 
960 -0.9770909625623547 0.5475008511842293 -0.09194155127791437 119 117 125 0.43 29 0 33 0 37 0 
961 -1.2371931447760922 0.6437578994339473 -0.003411135637916729 137 134 149 1.1 29 0 31 0 33 0 35 0 
962 0.24688006981553196 0.44567828572382406 0.044540150415067314 92 89 86 0.96 29 0 30 0 31 0 
963 -1.1924102618443282 0.6427775471617722 0.0022773808571217025 109 105 117 0.67 29 0 31 0 33 0 35 0 37 0 38 0 
964 -0.3456220007993287 0.46242090489411647 -0.03817183051546125 47 41 44 0.2 29 0 31 0 35 0 
965 0.6746736747332257 -0.7206861495147932 0.5042646506229024 62 52 35 2.78 29 0 31 0 33 0 
966 -0.5245422089295091 -0.8070443825763582 0.5118227385839381 20 41 70 0.31 33 0 34 0 35 0 36 0 37 0 38 0 
967 -0.32970696305257763 0.4704188642201753 0.0021547832506667586 44 45 50 1.09 29 0 31 0 34 0 
968 -0.26716562607424055 0.4685852626128878 0.020768879864410672 161 174 179 0.97 29 0 30 0 31 0 32 0 33 0 34 0 35 0 
969 -0.3640989786804556 -0.3102171100626936 0.7036184500512394 148 165 175 1.06 29 0 33 0 34 0 35 0 
970 0.27872012925372025 0.43556024211137456 0.09293175409035226 108 110 113 3.98 29 0 30 0 31 0 33 0 34 0 35 0 36 0 
971 0.1979390283551239 0.38318393163127473 0.01839402382785804 46 40 47 1.69 29 0 33 0 35 0 
972 -0.5357137508628117 -0.824657675524997 0.4729404538608054 32 34 40 1.02 33 0 36 0 38 0 
973 1.2606478698659531 -0.6544565609041261 0.48646131602312004 90 78 61 1.57 29 0 30 0 32 0 
974 -0.4447381613487179 0.30041425882902073 -0.19602933425542235 56 58 64 3.77 29 0 31 0 32 0 
975 -0.4862326531031035 0.30644912965465665 -0.20138949176004772 82 76 75 3.87 29 0 30 0 33 0 
976 0.722010573825854 0.005912163281081795 -0.3927889653103161 150 121 97 0.41 29 0 31 0 32 0 
977 1.29442215427221 -0.6694189626348473 0.4606917786615262 122 103 90 1.2 29 0 30 0 34 0 
978 0.32371742139688797 0.89623342039786 0.29598692049744246 93 67 67 1.12 29 0 30 0 31 0 32 0 33 0 34 0 
979 -1.5953468560415884 0.24309899323052708 -0.47433583196690265 32 40 50 0.68 29 0 31 0 33 0 
980 0.13986931388914658 0.06404068279753883 -0.37876350336060816 101 91 82 0.52 29 0 30 0 31 0 33 0 34 0 35 0 
981 0.2679091355952982 0.3395444912628678 0.029574858622881783 118 116 116 0.6 29 0 30 0 31 0 
982 -1.1860806901555039 0.27734694107200897 -0.32269262008714905 43 50 61 0.18 29 0 31 0 33 0 38 0 
983 -1.6016648312453532 -0.6831005054142927 0.49959796791756406 61 80 99 0.34 29 0 33 0 35 0 37 0 38 0 
984 0.12283336274831483 0.05991874508371409 -0.34924697524578563 67 64 63 0.66 29 0 30 0 31 0 32 0 33 0 34 0 36 0 37 0 
985 0.30973783012958234 -0.3663117949719942 0.5856426521509824 52 34 25 0.67 28 0 29 0 30 0 31 0 36 0 
986 0.9179600314815696 -1.0122215412656814 0.24501801972093584 38 27 18 2.94 29 0 33 0 36 0 37 0 
987 -1.5906846495804228 -0.6696198321494182 0.46803433260147076 93 133 158 0.43 29 0 31 0 33 0 35 0 37 0 38 0 
988 0.7432514674582312 0.2305547659141941 -0.01419721453421019 26 23 25 0.53 29 0 30 0 31 0 32 0 
989 -1.4478118670393374 -0.6900573547354845 0.42253939476823954 73 82 90 0.53 29 0 33 0 35 0 37 0 38 0 
990 -1.50686129297782 -0.6877286890922656 0.41931897696117704 53 61 70 0.66 29 0 31 0 33 0 35 0 37 0 38 0 
991 1.2337131390244378 -0.8687561852623962 0.27492550271737726 48 44 30 3.16 29 0 31 0 33 0 
992 -0.26977627485550426 0.41397558872096507 0.06172339335362753 53 45 50 0.49 29 0 30 0 31 0 34 0 35 0 
993 -0.7051083391653943 -0.7503168539956486 0.35805739277982973 89 51 49 0.5 29 0 33 0 34 0 35 0 36 0 37 0 
994 -1.3293849627522065 -0.6973823750858348 0.3902014855325183 81 71 59 1.42 29 0 33 0 37 0 38 0 
995 -0.7452512533705347 -0.7285553188360212 0.33979085361114814 126 110 104 0.54 29 0 33 0 34 0 36 0 37 0 38 0 
996 -0.9930416581203236 -0.7050772702326897 0.36074454139437784 122 115 112 0.76 29 0 33 0 34 0 35 0 36 0 38 0 
997 0.8743702401402249 -0.8590153187145353 0.2380790449065998 45 34 26 0.22 33 0 36 0 38 0 
998 -1.3590932139974747 -0.6588330410260226 0.37851460860133856 105 102 103 0.46 29 0 33 0 35 0 37 0 38 0 
999 -1.429008601074164 0.2588556777872947 -0.3158548251738872 83 68 65 0.72 29 0 31 0 33 0 37 0 38 0 
1000 -1.1172771212203871 0.2211653073089127 -0.31408594508359733 35 27 29 0.88 29 0 31 0 33 0 35 0 37 0 
1001 -1.1959699929496335 0.21885938499701763 -0.3297798528579664 63 56 53 0.46 29 0 31 0 33 0 35 0 37 0 
1002 -0.739306297953161 -0.725220254742172 0.3250168288812737 33 31 31 1.23 29 0 30 0 31 0 33 0 34 0 35 0 36 0 37 0 38 0 
1003 -1.4139029308030027 -0.6602651006884146 0.3745555979086924 80 71 76 0.42 29 0 33 0 35 0 37 0 
1004 -0.5989423527344964 0.28911112809969575 -0.13398758237275887 22 24 27 3.22 29 0 31 0 33 0 
1005 -1.0673129888651405 -0.6792311602464529 0.34832685865459767 121 112 110 0.57 29 0 33 0 34 0 35 0 36 0 37 0 38 0 
1006 -1.1144188996634699 -0.6844224222364472 0.34470054706722275 93 86 80 1.23 29 0 33 0 35 0 36 0 37 0 38 0 
1007 -1.2765181698255554 0.22225112824760418 -0.31937743316741496 139 127 122 0.51 29 0 31 0 33 0 35 0 37 0 38 0 
1008 -1.3150740226044377 0.2300720493552807 -0.31725727062840103 127 127 125 0.29 29 0 31 0 33 0 35 0 
1009 -0.8238348481122673 -0.6812035831104352 0.3295191970292112 96 93 96 0.43 29 0 33 0 34 0 35 0 36 0 37 0 38 0 
1010 0.14441461373987002 0.00550053371776793 -0.3393636711778757 121 111 99 0.71 29 0 33 0 34 0 35 0 36 0 38 0 
1011 -1.0228140100002352 -0.6559805830061624 0.3303375478560252 129 115 107 1.68 29 0 33 0 34 0 35 0 36 0 37 0 38 0 
1012 -1.0678084770504987 -0.6544815513333724 0.3266467654777677 98 97 104 0.7 29 0 33 0 34 0 35 0 37 0 38 0 
1013 0.004296137087415164 -0.7658765769035727 0.24452351990574928 51 46 36 1.45 28 0 29 0 30 0 31 0 33 0 34 0 35 0 
1014 0.8253688517813634 -0.30114628396376814 0.5039327537427475 140 144 146 0.56 29 0 33 0 37 0 
1015 0.2637526596373446 0.2968668205386864 0.05213156399903307 141 151 160 0.27 29 0 31 0 35 0 
1016 -1.3851992142180403 0.22687958226054128 -0.3056511626141375 104 94 91 0.52 29 0 31 0 33 0 35 0 
1017 0.8459804868997255 -0.09779026718121081 -0.3583304026592379 68 58 57 0.54 29 0 33 0 34 0 35 0 37 0 
1018 -0.7571087305666107 -0.6606629987679529 0.3028810921191355 92 92 94 0.66 29 0 33 0 34 0 35 0 36 0 37 0 38 0 
1019 -1.537136875006704 -0.5981283503367909 0.34553381288545937 173 189 200 0.55 29 0 33 0 35 0 37 0 
1020 -0.9696354568567571 0.15191068103583716 -0.31168304305187744 56 43 48 0.62 29 0 31 0 33 0 35 0 36 0 37 0 38 0 
1021 -1.194432904667269 0.19643107912510727 -0.3079073719721911 97 103 100 2.55 29 0 31 0 33 0 35 0 37 0 
1022 -0.997070103126187 -0.6357835474728444 0.308164912269867 127 115 107 0.55 29 0 33 0 34 0 35 0 36 0 37 0 38 0 
1023 -1.5122836119586875 -0.6276659533062288 0.3243474551313815 111 108 106 1.64 29 0 33 0 35 0 37 0 38 0 
1024 0.8846521546122795 -0.8068616781077901 0.19199266590616182 39 29 23 0.39 33 0 36 0 37 0 38 0 
1025 -1.49736103463217 -1.06087156476316 0.05821088850442546 124 141 155 1.08 29 0 31 0 33 0 
1026 -1.434168262340555 0.22621421124313257 -0.2886580951093354 120 97 95 0.38 29 0 31 0 33 0 37 0 38 0 
1027 -1.1906101941121077 0.15856024174053607 -0.3386908910064116 85 68 71 0.67 29 0 31 0 33 0 35 0 
1028 -0.8172555277778935 -0.6369482007380758 0.2906042494618003 115 109 109 0.84 29 0 33 0 34 0 37 0 38 0 
1029 1.2303282106936084 -0.8299523333679348 0.17595128426444318 61 55 40 2.42 29 0 31 0 33 0 
1030 -0.7570079343004357 0.12008500518100484 -0.2954147785304624 113 102 98 0.84 29 0 31 0 32 0 33 0 34 0 35 0 36 0 37 0 38 0 
1031 -1.2530459714010573 0.18970931502376198 -0.2948403442494181 91 80 80 0.75 29 0 33 0 35 0 37 0 38 0 
1032 0.6583235948077213 -0.08985394707103511 -0.3402351414827878 35 35 37 0.24 29 0 31 0 33 0 
1033 -0.7187054200630039 -0.6764194032817247 0.25453618265347655 106 127 139 0.69 29 0 33 0 34 0 35 0 36 0 37 0 
1034 0.3655761768791951 -0.7796251477139959 0.18350603657504838 41 36 28 1.42 29 0 30 0 31 0 36 0 
1035 1.1246669043242619 -0.8631144713760209 0.13144238686316034 42 38 25 0.82 29 0 30 0 31 0 
1036 -0.8811872538503698 0.13040828611248045 -0.2923864427398398 135 127 124 0.51 29 0 31 0 33 0 36 0 38 0 
1037 -1.066716236047926 -0.6071857459316444 0.2754079789408973 153 166 182 0.86 29 0 33 0 34 0 35 0 36 0 38 0 
1038 -0.016996241859726258 -0.7245174900291651 0.1860897527949944 24 25 19 0.68 29 0 30 0 31 0 34 0 35 0 
1039 -1.052551713393909 0.11293342779589233 -0.33267325917013824 153 173 188 0.33 29 0 31 0 33 0 35 0 38 0 
1040 -1.114477855268174 0.12265914864183303 -0.33135619598355426 145 162 171 0.48 29 0 31 0 33 0 35 0 37 0 38 0 
1041 -1.1772256205593403 0.12937130699975363 -0.33173229922469094 89 113 118 0.43 29 0 31 0 33 0 35 0 37 0 38 0 
1042 0.7389107716182914 -0.10719310948468347 -0.3218818586921217 88 73 64 0.59 29 0 30 0 31 0 33 0 35 0 37 0 
1043 -0.790844408199975 -0.5927115309015031 0.2537181966505263 97 93 94 0.66 29 0 33 0 35 0 36 0 37 0 38 0 
1044 -0.9386077637411336 0.10709896694167742 -0.29125498851914033 122 104 101 0.57 29 0 31 0 35 0 36 0 
1045 0.09445766403498562 -0.08341371528113872 -0.3717546294204742 125 142 158 0.63 29 0 31 0 33 0 
1046 -1.2696246419088961 0.17439681694346942 -0.2744483036530134 117 97 95 0.35 29 0 33 0 35 0 
1047 0.9473422476519342 -0.8373867675407882 0.10214000815447999 61 51 44 2.93 29 0 33 0 36 0 37 0 38 0 
1048 -1.1836391758783718 0.09404398866666941 -0.3195521449254314 70 88 93 0.49 29 0 31 0 33 0 35 0 37 0 38 0 
1049 -0.9761947769114871 0.1084488792980024 -0.27634457713810523 67 59 65 0.34 29 0 33 0 35 0 36 0 37 0 
1050 -1.0551712993938975 0.08636491234295474 -0.3121273999451266 144 166 182 0.46 29 0 31 0 33 0 35 0 38 0 
1051 -1.116787796262507 0.09757126275828354 -0.3079201660818005 151 171 183 0.49 29 0 31 0 33 0 35 0 38 0 
1052 -0.7670528805221972 -0.5605810973498597 0.22633537319153996 95 87 89 0.54 29 0 33 0 34 0 35 0 36 0 37 0 38 0 
1053 -0.2717316447913063 -0.5787498219667273 0.2104808760987701 42 28 20 0.64 28 0 29 0 30 0 31 0 
1054 -1.1330593103350057 -0.5561904212958606 0.2260936188662569 148 174 190 0.67 29 0 33 0 35 0 36 0 37 0 38 0 
1055 0.029857048869187663 -0.09072069559151452 -0.3285932409738779 136 146 153 0.3 29 0 33 0 34 0 36 0 
1056 -1.381551012525624 0.17032930920539335 -0.23970968039306118 118 103 101 0.83 29 0 31 0 33 0 35 0 37 0 38 0 
1057 -1.4400391008105096 0.175394356689777 -0.24549685656567277 71 47 44 0.4 29 0 31 0 33 0 35 0 37 0 38 0 
1058 1.2453653681599846 -0.7232665355953605 0.1272971395834085 105 65 51 0.57 29 0 31 0 33 0 
1059 -0.6430782724854944 0.05178976560947485 -0.24502146185788232 71 64 64 0.92 29 0 31 0 32 0 33 0 34 0 36 0 37 0 
1060 1.1923084076731878 -0.21537896689932035 -0.3184538581599763 62 60 53 0.42 29 0 30 0 31 0 
1061 -0.9032594078393508 -0.5537855272895451 0.20140888530130951 138 128 123 1.7 29 0 33 0 34 0 37 0 
1062 -0.9824202517610143 0.07838441282682274 -0.2614651139610319 111 111 117 0.62 29 0 31 0 33 0 35 0 36 0 38 0 
1063 -1.057009534919248 0.06259167386371056 -0.28648793715659715 163 174 186 0.24 29 0 31 0 33 0 35 0 37 0 38 0 
1064 -1.1211241080105794 0.0691564191496794 -0.2879870048252342 169 173 187 0.46 29 0 31 0 33 0 35 0 37 0 38 0 
1065 -1.1811936898774187 0.08047981751608957 -0.28270393930578275 159 165 170 0.45 29 0 31 0 33 0 35 0 37 0 38 0 
1066 -0.9594659419702887 -0.5135916307012097 0.2149612025853037 132 126 120 0.82 29 0 33 0 34 0 35 0 36 0 37 0 38 0 
1067 -1.0069091277010884 -0.5098247918234311 0.21856040510012342 85 89 96 0.6 29 0 33 0 34 0 35 0 37 0 38 0 
1068 -1.1990171693531662 -0.5357290166638052 0.1907844998487228 181 200 209 0.72 29 0 33 0 35 0 36 0 
1069 -1.3699769426064516 0.13702718435360273 -0.2365150951414955 53 58 62 0.53 29 0 31 0 33 0 35 0 37 0 38 0 
1070 -1.1940677818194527 0.11893573307508454 -0.2359404037765197 37 37 39 0.69 29 0 31 0 33 0 35 0 
1071 1.4198518580919186 -0.10342474843496191 -0.13679528138400432 172 164 162 2.67 29 0 30 0 32 0 34 0 
1072 0.7809070842353039 -0.1681156676565398 -0.28682964956071877 72 60 52 0.85 29 0 30 0 31 0 33 0 35 0 36 0 37 0 
1073 -0.8531580800671323 0.06067855390190213 -0.23919599357602828 134 132 135 0.67 29 0 31 0 35 0 
1074 -1.2883776179221145 0.11928785181734247 -0.2365955379982665 85 71 71 0.22 29 0 33 0 35 0 37 0 
1075 -1.0486106330113234 -0.4843005070752103 0.19074252801774094 114 117 132 0.51 29 0 33 0 35 0 37 0 
1076 -1.1253707994172255 0.04456878076585297 -0.2695736277795634 155 168 181 0.67 29 0 33 0 35 0 37 0 38 0 
1077 -0.040475236528612846 -0.1247176057435685 -0.29680608491680627 130 140 148 0.39 29 0 33 0 34 0 
1078 -1.195739772952474 0.09325012415056455 -0.21436638683558773 81 66 63 0.67 29 0 31 0 33 0 37 0 38 0 
1079 -0.8406265272783384 -0.480526250081833 0.17756232383811132 88 85 87 1.31 29 0 33 0 34 0 35 0 36 0 37 0 38 0 
1080 0.026394244426636404 -0.623830442386765 0.08944670373196606 76 73 69 1.28 29 0 30 0 31 0 35 0 
1081 0.9909933789700511 -0.8251792731304002 -0.02416330855760218 76 66 58 4.16 29 0 33 0 36 0 
1082 -0.7567202678714273 -0.48293710551139346 0.1629841564971687 97 90 86 0.81 29 0 33 0 34 0 35 0 36 0 38 0 
1083 -0.8167688941038604 -0.49901070605823467 0.15474781329083565 90 94 96 0.97 29 0 33 0 36 0 
1084 -0.9440156073446364 -0.45478580578421396 0.17134762831470252 95 93 96 0.28 29 0 33 0 35 0 36 0 37 0 38 0 
1085 -1.4540916224621458 0.1020284516627542 -0.19602673809510518 50 46 41 0.54 29 0 31 0 33 0 35 0 37 0 
1086 -1.3995728627397965 0.10555552253552469 -0.18995875304690002 146 136 132 0.92 29 0 31 0 33 0 35 0 
1087 -0.1667886957785505 -0.5432105140747068 0.10929344868372126 24 15 11 0.47 29 0 30 0 33 0 
1088 -0.6721495816180894 -0.5231226744327687 0.11064985808241345 109 118 121 0.88 29 0 33 0 34 0 38 0 
1089 -0.9868703811378803 0.024731740743241526 -0.2129476109469789 80 75 82 0.64 29 0 31 0 33 0 36 0 37 0 38 0 
1090 -1.0642385181888718 0.007982212189015847 -0.24016621678432493 167 181 199 0.43 29 0 31 0 33 0 35 0 36 0 37 0 
1091 -1.1284011891879138 0.015519442393808591 -0.23997024648781107 167 181 197 0.34 29 0 31 0 33 0 35 0 37 0 38 0 
1092 -1.1812536374325173 0.041781123301011025 -0.21691272588673882 149 160 170 0.64 29 0 31 0 33 0 37 0 
1093 0.8846615022245907 -0.20671844180921953 0.3623305747564861 150 142 134 0.37 29 0 30 0 31 0 
1094 -0.2040318038115464 -0.5170079038087823 0.1188545943255851 61 50 43 0.84 29 0 30 0 31 0 33 0 38 0 
1095 -0.8582232957528062 0.0132585909068208 -0.18797553796897326 97 86 87 1.51 29 0 31 0 32 0 33 0 34 0 36 0 37 0 38 0 
1096 0.0278418321806867 -0.5896936733621938 0.06450224875686728 68 75 75 0.71 29 0 30 0 31 0 35 0 36 0 
1097 -1.2540618682426512 -0.40212927831447526 0.16413368080059343 86 70 68 0.58 29 0 33 0 35 0 37 0 
1098 -1.1208565713070355 -0.449508330170264 0.1244770012428652 136 158 172 0.84 29 0 33 0 36 0 37 0 38 0 
1099 0.8094648906973856 -0.13626789505429837 0.3916087769584845 132 137 140 1.13 29 0 31 0 33 0 36 0 
1100 0.7707245841154651 -0.6253750687340869 0.04952897343819973 68 54 42 1.05 28 0 29 0 30 0 31 0 32 0 33 0 36 0 38 0 
1101 0.08833655264254364 -0.5309095472648782 0.09321411376973643 59 46 38 0.47 29 0 30 0 31 0 34 0 35 0 
1102 0.05987065777660455 -0.5282168446684429 0.09340442923100489 58 49 43 0.58 29 0 30 0 31 0 34 0 35 0 
1103 -1.1797763727890866 -0.43518784392716064 0.129276320624082 159 179 189 0.53 29 0 33 0 35 0 36 0 37 0 38 0 
1104 -1.2452322112437522 -0.4481710920285087 0.11813467247637999 122 135 142 1.4 29 0 31 0 33 0 35 0 37 0 38 0 
1105 -1.0689220650114268 -0.020375486055243308 -0.21429364955640562 158 180 193 0.39 29 0 31 0 35 0 36 0 
1106 -1.13095304093121 -0.010613589888946506 -0.21053446764650074 156 177 188 0.25 29 0 31 0 33 0 37 0 38 0 
1107 -1.3791500017514016 0.05870118455950146 -0.16750500321584938 105 73 69 0.75 29 0 31 0 33 0 35 0 37 0 38 0 
1108 -0.764314392957987 -0.42143515484584226 0.12643731844083306 63 68 75 0.54 29 0 33 0 34 0 35 0 36 0 37 0 38 0 
1109 -0.1377643352367265 -0.6066650314817033 0.010928792122664954 82 85 90 0.99 28 0 29 0 30 0 31 0 33 0 
1110 -0.8161942688709607 -0.42976726283579236 0.11906445669984367 112 98 95 0.57 29 0 33 0 34 0 36 0 37 0 38 0 
1111 -1.4545530056564167 0.06453995705643789 -0.15944858650042326 93 75 62 0.56 29 0 31 0 33 0 38 0 
1112 0.6406988164309123 -0.22298170458393035 -0.2253622859131469 37 28 30 0.86 27 0 29 0 30 0 31 0 32 0 35 0 
1113 -0.9282411370317678 -0.008382795157446998 -0.1775016310842551 118 99 93 0.3 29 0 31 0 35 0 36 0 
1114 -1.0000607073069887 -0.021402876716324237 -0.20173669443215891 84 86 96 1.3 29 0 31 0 33 0 35 0 36 0 37 0 38 0 
1115 -3.4371997489619863 -0.8226602737336085 -1.31683987176484 24 26 35 0.44 29 0 31 0 33 0 
1116 -1.0417211693151343 -0.39680025837494887 0.12060965523680489 141 160 176 1.42 29 0 31 0 33 0 35 0 37 0 38 0 
1117 0.38663977444664044 0.1628241031841915 0.16127816732072608 116 95 88 2.68 29 0 30 0 33 0 35 0 
1118 -1.2053214993439534 0.03021501191347936 -0.1682704870900663 98 95 89 0.68 29 0 33 0 35 0 37 0 38 0 
1119 -1.180474912135437 -0.4150266629047797 0.09764128564262764 174 198 209 0.39 29 0 31 0 33 0 35 0 36 0 37 0 
1120 -0.6903899511581952 -0.45806954339182837 0.07494456058043852 107 126 135 0.64 29 0 33 0 35 0 36 0 37 0 
1121 0.6385085689799325 -0.23135830714220063 -0.21559664954047353 39 33 31 0.85 29 0 31 0 33 0 35 0 
1122 -0.6311423492132813 -0.4671995437098731 0.06992431369823715 156 174 187 1.02 29 0 33 0 35 0 36 0 38 0 
1123 -1.0573257477573466 -0.4031195654549664 0.08528317278614872 152 164 176 0.85 29 0 31 0 33 0 36 0 38 0 
1124 -3.307036711619048 -0.7996017347984806 -1.2131657488248226 72 100 107 0.46 29 0 31 0 33 0 
1125 0.09936577619599679 -0.16260978638143908 -0.1954291554849995 53 47 46 0.62 29 0 31 0 33 0 36 0 37 0 
1126 -1.113440492793333 -0.39522214353931234 0.0847267379319897 181 195 206 0.69 29 0 31 0 33 0 35 0 36 0 37 0 38 0 
1127 -1.178363103579127 -0.3939320543534254 0.0797535814704936 178 192 202 0.52 29 0 31 0 33 0 35 0 36 0 37 0 
1128 -0.7040990643800034 -0.4221825036732374 0.07416753889769201 58 51 57 0.96 29 0 33 0 34 0 35 0 36 0 37 0 38 0 
1129 -1.2342158760599404 -0.3825580455028105 0.08567883987279823 119 146 153 0.47 29 0 33 0 35 0 37 0 38 0 
1130 0.08226666210627365 -0.4705183559692472 0.05873478618377603 49 40 32 1.55 29 0 30 0 31 0 32 0 34 0 35 0 
1131 -0.6559850746561814 -0.060513803609385075 -0.15597488054754982 54 46 44 1.02 29 0 30 0 31 0 32 0 33 0 35 0 
1132 1.4088106379712362 -0.1443968271099192 -0.03493925860096725 130 145 148 2.41 29 0 30 0 32 0 
1133 -0.9971502047890957 -0.035667606201254254 -0.16837813177809313 88 94 107 0.16 29 0 31 0 33 0 36 0 37 0 
1134 -1.069354729787506 -0.04500151349938347 -0.18735485963320686 159 171 183 0.54 29 0 31 0 33 0 35 0 36 0 37 0 38 0 
1135 -1.1360669751581465 -0.041327588771385204 -0.19061834578096482 158 173 186 0.45 29 0 31 0 33 0 35 0 37 0 
1136 -1.1943041796182163 -0.026302585382328658 -0.18296156527360707 144 152 160 0.48 29 0 31 0 33 0 35 0 37 0 38 0 
1137 -3.3424544563744094 -0.7781982870512796 -1.1937646520401004 88 90 105 0.52 29 0 31 0 33 0 
1138 -0.12018303279401615 -0.18704522662771683 -0.21878379494265965 48 43 44 1.8 29 0 30 0 31 0 33 0 34 0 
1139 -0.08356698132083246 -0.20270333553501246 -0.2290698723722665 90 95 99 1.16 29 0 30 0 31 0 32 0 33 0 34 0 35 0 
1140 -1.248920960770169 -0.3499653688636026 0.0832861619778883 85 64 70 0.78 29 0 33 0 35 0 37 0 38 0 
1141 -0.9585480777032342 -0.3490879687115573 0.09000435480066737 96 86 84 0.52 29 0 33 0 37 0 38 0 
1142 -1.1843227646637853 -0.34345023629515903 0.08718487124171814 161 160 159 0.29 29 0 33 0 35 0 
1143 1.2776416634670409 -0.31829527200382013 -0.20034208923470187 86 73 58 0.86 29 0 30 0 35 0 
1144 -0.7139763112239266 -0.36751931706435725 0.07400235985194159 58 50 45 0.45 29 0 33 0 34 0 35 0 36 0 37 0 38 0 
1145 0.9196514468936909 -0.2633422610084597 -0.1684708998532033 128 117 104 1.62 33 0 34 0 35 0 36 0 37 0 38 0 
1146 0.08736160325733797 -0.21214529424775186 -0.19765958057872346 84 85 93 0.82 29 0 31 0 33 0 34 0 36 0 37 0 
1147 -0.9960465180035871 -0.054487010522422163 -0.14905908434230286 100 92 95 0.36 29 0 31 0 33 0 35 0 36 0 37 0 
1148 -1.011644027724619 -0.3273219539282353 0.08114061618393276 105 82 69 0.6 29 0 31 0 33 0 35 0 36 0 
1149 0.006061431874037904 0.9550608568814155 0.31632434788008734 98 90 89 0.25 29 0 31 0 34 0 
1150 -0.7034581985021452 -0.3491600229839312 0.05167845606643229 115 101 93 0.61 29 0 33 0 34 0 35 0 36 0 37 0 38 0 
1151 0.8593504226515853 0.11023353120263257 0.20622808534613257 163 170 174 0.34 29 0 33 0 35 0 
1152 -1.1390610577578013 -0.07037935199756928 -0.1665379146295125 141 166 181 0.25 29 0 33 0 35 0 37 0 
1153 -1.2022712590114784 -0.07700218668515935 -0.17998214690168957 58 92 111 1.84 29 0 33 0 38 0 
1154 -1.4629058744242582 0.007489297323670652 -0.12107932106151442 91 74 72 0.64 29 0 31 0 33 0 35 0 37 0 38 0 
1155 -3.324716669229846 -0.8793928295283606 -1.1883143759071357 33 35 39 0.32 29 0 31 0 33 0 
1156 -1.0262261312631598 -0.2958201612103617 0.056289039186088075 103 96 87 0.6 29 0 31 0 33 0 36 0 37 0 
1157 -4.521040312281388 -1.9035865871381943 -2.288100553160463 70 95 69 0.68 29 0 31 0 33 0 
1158 -3.360871245293498 -0.8346036855012723 -1.1365048620272367 28 38 52 0.38 29 0 31 0 33 0 
1159 1.3349440256694876 -0.03549429428454376 0.10779273300952308 121 120 123 0.29 29 0 30 0 32 0 
1160 -1.0760948684011167 -0.08173659261979832 -0.16256676953958438 160 180 196 0.78 29 0 31 0 35 0 
1161 -0.8578183228801795 -0.3076447793713321 0.048932293869825005 123 111 108 0.87 29 0 33 0 34 0 36 0 37 0 38 0 
1162 -1.133134508382069 -0.21717234776311867 0.10019106628024244 148 137 131 4.46 29 0 31 0 33 0 36 0 
1163 -11.66452076406495 -7.198499122000797 -5.924168962643165 151 171 162 1.61 29 0 31 0 33 0 
1164 0.011674095769820647 -0.231537080792314 -0.19644937576829447 136 148 157 0.66 29 0 30 0 31 0 32 0 34 0 35 0 36 0 
1165 -1.3169696117903362 -0.02204696564939751 -0.11702871763742628 102 91 91 0.72 29 0 31 0 33 0 35 0 37 0 38 0 
1166 -0.8069021080170575 -0.3043032169471337 0.03439080107819292 71 74 82 0.54 29 0 33 0 35 0 36 0 38 0 
1167 0.127090300092574 0.9320464640641185 0.30973453003415463 98 75 73 0.73 29 0 30 0 31 0 
1168 -1.2145886721678132 -0.039699774911879926 -0.11705905204564282 97 93 89 0.71 29 0 33 0 35 0 38 0 
1169 0.0907575048417166 -0.21668346478868572 -0.14505539746326435 87 79 80 0.84 29 0 31 0 32 0 33 0 38 0 
1170 -1.4639923041148968 -0.012431436406479701 -0.09751349165754075 94 69 55 0.53 29 0 33 0 35 0 38 0 
1171 0.6078021118655499 -0.300458245261469 -0.18860960226470136 24 22 23 0.7 29 0 31 0 33 0 34 0 
1172 -1.2037693705594394 -0.08453361450065366 -0.14386829478768104 116 128 139 0.49 29 0 31 0 33 0 35 0 37 0 38 0 
1173 -1.2527956252894106 -0.25303294554624933 0.047386010860205885 126 120 115 1.78 29 0 31 0 33 0 37 0 
1174 -0.7114267306748476 -0.3228011605381621 0.007764623807084536 96 93 92 2.0 29 0 30 0 33 0 34 0 35 0 36 0 37 0 38 0 
1175 -0.9562044231144087 -0.2762932951722618 0.028531779757310693 142 136 129 0.58 29 0 33 0 35 0 
1176 -0.8923516208354625 -0.27218082321038073 0.025225492169867247 135 127 124 0.7 29 0 33 0 34 0 35 0 36 0 37 0 38 0 
1177 -1.0021957347594321 -0.261084889913916 0.031870192253564134 127 109 107 0.92 29 0 33 0 35 0 
1178 -1.0800863834257353 -0.10535205031177336 -0.14653426580567352 145 161 175 0.58 29 0 31 0 33 0 35 0 36 0 37 0 38 0 
1179 -1.3287606707456647 -0.0535932253400328 -0.09234415734234935 86 84 90 0.72 29 0 31 0 33 0 35 0 37 0 
1180 -0.24071301642533072 -0.16358747267877238 -0.09764045764634555 120 114 108 0.62 28 0 29 0 30 0 31 0 
1181 -0.8336680124963871 -0.10410508654237866 -0.08240638793883293 103 93 95 1.17 29 0 31 0 32 0 33 0 34 0 36 0 37 0 
1182 -1.1489348299561006 -0.12399073024694873 -0.13156452149638975 128 151 168 0.43 29 0 31 0 33 0 35 0 
1183 -0.16325002832634877 0.15605245612137564 0.22700615688320813 47 39 38 1.06 29 0 33 0 37 0 
1184 -1.0833382691757552 -0.13236683002169097 -0.12818653339745667 117 137 152 0.43 29 0 33 0 35 0 38 0 
1185 -0.8919576585463309 -0.2500713561109377 -0.004425410686482167 83 73 72 0.86 29 0 31 0 33 0 34 0 35 0 36 0 37 0 38 0 
1186 -1.1447700874631797 -0.21161886959945758 0.005801903653675056 65 59 67 0.5 29 0 31 0 33 0 35 0 37 0 38 0 
1187 -1.2700392012809891 -0.19629730841233328 0.00547366234365354 88 96 101 0.45 29 0 31 0 33 0 35 0 37 0 38 0 
1188 -1.4006947735908784 -0.0795728788476347 -0.08924310184306938 124 99 98 0.59 29 0 31 0 33 0 
1189 0.6474715291629266 -0.4278760477566831 -0.08841056640935752 78 63 53 0.33 29 0 31 0 33 0 
1190 -0.6862099699501848 -0.24917652127792614 -0.023987273772366202 124 117 110 0.96 29 0 33 0 34 0 35 0 36 0 37 0 38 0 
1191 0.4062562564918535 -0.39396569301125794 -0.08373699332253726 74 60 50 0.46 28 0 29 0 30 0 31 0 
1192 -1.0527618039849218 -0.1971462501520298 -0.016909150191521505 155 144 133 0.57 29 0 33 0 35 0 36 0 37 0 38 0 
1193 1.4156457682685213 -0.4274673041733695 -0.059563987356458514 110 89 72 2.39 29 0 30 0 32 0 34 0 
1194 -1.0795033577860063 -0.20810310215755046 -0.16430014015381178 80 82 85 1.73 29 0 31 0 33 0 35 0 
1195 0.006874925200866411 -0.28977245871255486 -0.15720038843139583 117 127 130 0.82 29 0 30 0 31 0 35 0 
1196 -1.0839294057795064 -0.18385514960162297 -0.013300388196282431 151 136 122 0.5 29 0 31 0 33 0 35 0 36 0 37 0 38 0 
1197 -1.1805234154026643 -0.17379197021953757 -0.011333628976663901 151 133 121 0.47 29 0 31 0 33 0 35 0 37 0 38 0 
1198 -1.2796704295058425 -0.16328864873587118 -0.009104658800956789 88 85 90 0.62 29 0 31 0 33 0 37 0 38 0 
1199 -0.5702617307036226 -0.17524268011021787 -0.08640643458576236 65 73 76 1.44 29 0 33 0 37 0 38 0 
1200 -1.2849497131532075 -0.08267298616681484 -0.056656915698090726 95 82 83 0.54 29 0 31 0 33 0 35 0 37 0 38 0 
1201 -0.6931857114726127 -0.22122574592357627 -0.03971828919649145 120 92 89 0.55 27 0 28 0 29 0 30 0 31 0 32 0 33 0 34 0 35 0 37 0 38 0 
1202 -1.0894393487359195 -0.16436344020065602 -0.10668840265421597 63 57 56 0.67 29 0 31 0 33 0 35 0 36 0 
1203 -1.1556843320085803 -0.15884330460702034 -0.10860689851391148 57 52 52 0.38 29 0 31 0 33 0 35 0 37 0 
1204 0.6020749312179858 -0.35194075425543525 -0.146993771471993 32 24 24 0.31 29 0 31 0 33 0 
1205 -1.21005930481945 -0.13461584166253532 -0.09544358216154258 43 42 43 0.47 29 0 31 0 33 0 35 0 37 0 38 0 
1206 -1.2608815783301088 -0.10694536729156684 -0.07278876319402361 119 110 111 0.78 29 0 31 0 33 0 35 0 37 0 38 0 
1207 -1.25086312476567 -0.1686888283486489 -0.030789488256820152 147 124 125 0.7 29 0 31 0 33 0 35 0 
1208 -1.362234775115146 -0.14761746437148598 -0.02562872990124887 96 96 99 0.44 29 0 33 0 37 0 38 0 
1209 0.23876355588428064 0.07249113210909996 0.22128839563378133 122 126 133 0.6 29 0 30 0 35 0 
1210 -0.8245516719101094 -0.15632104522529633 -0.07381005726533385 111 109 107 0.32 29 0 33 0 34 0 37 0 
1211 -1.083804234822768 -0.1577156662712773 -0.025864890261472095 155 142 130 0.48 29 0 31 0 33 0 35 0 36 0 37 0 
1212 1.2290653637128828 -0.7905753126420314 -0.42247549896248937 52 43 38 2.66 28 0 29 0 30 0 34 0 35 0 
1213 0.032574863451444724 -0.30247946769029865 -0.13251028135387533 44 56 55 0.55 29 0 33 0 35 0 
1214 -0.6114972007242265 -0.23832728643085882 -0.12575226568440656 83 85 87 2.38 29 0 30 0 32 0 33 0 34 0 35 0 37 0 
1215 -1.2237411423770448 -0.12492441981728603 -0.051965772232982266 71 62 60 0.71 29 0 31 0 33 0 35 0 37 0 38 0 
1216 -1.3063692916359142 -0.1270103899602047 -0.046318658411031444 102 90 94 0.28 29 0 31 0 33 0 35 0 
1217 -0.1311922211283587 -0.30690235772194496 -0.1295478325205912 32 23 21 0.89 29 0 33 0 34 0 35 0 
1218 0.6823438818426104 0.8248935855443716 0.2453134913723215 121 82 78 2.49 29 0 31 0 32 0 
1219 0.9328212159044866 0.5466586929400133 0.09255884493470978 126 114 114 4.23 29 0 30 0 32 0 34 0 
1220 -0.16514132383459812 0.6805084287304574 0.04677041669105997 74 90 98 0.71 29 0 33 0 34 0 
1221 0.6566867931993292 0.4992297616031972 -0.010558015013511057 72 61 63 0.38 29 0 30 0 33 0 
1222 -0.30480374248689013 0.7038897736283624 0.05117077216678323 55 69 73 0.8 29 0 31 0 33 0 34 0 
1223 0.47070611091673803 0.5487334747463551 0.0044538010156985886 96 90 89 0.74 29 0 30 0 31 0 
1224 -0.24228437237344536 0.695144891044072 0.06498149948355725 57 62 67 1.22 28 0 29 0 30 0 31 0 32 0 33 0 34 0 35 0 36 0 
1225 -0.4799481406362389 0.7791222834434829 0.1538578571454493 40 59 41 0.26 29 0 33 0 34 0 
1226 0.31819433473147263 0.8691241218435773 0.2670315658124588 96 83 82 0.7 29 0 30 0 31 0 
1227 1.4544985195921776 -0.36737281683857437 -0.1185990209427662 175 175 170 2.05 29 0 30 0 34 0 
1228 -0.9797187755505636 -0.19185422903331956 -0.007414059960851316 139 126 116 0.46 29 0 33 0 37 0 38 0 
1229 0.06269037914003356 0.9454373901872101 0.2860819630161854 89 80 80 4.17 29 0 31 0 32 0 34 0 
1230 -0.7748205418904459 0.7994377270592093 0.10944875430097734 45 55 31 0.77 29 0 31 0 33 0 35 0 
1231 0.6322565550101953 -0.4230552084565784 -0.09105189465512731 69 53 45 0.7 29 0 33 0 35 0 
1232 0.02681531612784782 0.6069865486120204 0.03321425567361935 77 70 74 0.82 29 0 31 0 33 0 
1233 1.0569403674766533 0.4503772367479101 0.08818800108885927 45 38 41 0.78 29 0 30 0 32 0 
1234 0.3681575102504183 0.49255380371207913 0.0017097250249055174 90 90 93 0.23 29 0 31 0 32 0 
1235 -0.751169180663025 0.8495828514033993 0.11337594237431203 81 103 69 0.3 29 0 33 0 35 0 
1236 0.2831529735909868 0.8986233711990445 0.2930747996638333 94 82 81 0.56 29 0 31 0 33 0 
1237 0.08559728010451104 -0.2248876381211388 -0.1815781798739482 101 104 116 0.67 29 0 30 0 34 0 
1238 1.4211730582307753 -0.2322330423011555 -0.08097711389909423 188 189 185 3.21 29 0 30 0 32 0 34 0 
1239 -1.1526020585852141 -0.28491540533477405 0.06714052561512307 144 130 125 0.33 29 0 33 0 36 0 37 0 38 0 
1240 -1.1302015291342673 0.6611309009849772 -0.01412843101526462 88 81 90 0.68 29 0 31 0 33 0 38 0 
1241 -0.061182740083176146 0.9194171236799374 0.2643560450662813 114 73 77 0.91 29 0 30 0 31 0 32 0 
1242 -0.934449305678948 0.8827256988611815 0.08972296039467631 78 72 73 0.63 29 0 31 0 33 0 35 0 
1243 -1.1549200984463457 -0.3183164194344138 0.07721710587878416 39 28 25 0.73 29 0 31 0 33 0 35 0 36 0 37 0 
1244 0.7275977094414989 0.0537471105540695 -0.4598965184955646 124 102 82 0.59 28 0 29 0 30 0 31 0 
1245 0.06166721437610906 -0.46344802372185306 0.03595385949662433 70 51 45 0.32 29 0 30 0 35 0 
1246 -1.2647349135337334 0.6409154019931621 -0.010938934780583387 128 127 140 0.46 29 0 31 0 35 0 
1247 0.7528401574722442 0.28539526105458646 -0.0698254166690333 46 32 29 0.62 29 0 31 0 34 0 
1248 -1.3547894928515927 0.3630122240807382 -0.39111579720545436 78 71 73 0.54 29 0 33 0 37 0 38 0 
1249 0.5630725245858322 -0.5640287029580493 0.030188200679064803 31 22 17 0.71 27 0 28 0 29 0 30 0 31 0 32 0 33 0 
1250 -0.19069785385232435 -0.47666180851151996 0.0836341193281186 41 37 38 0.43 29 0 30 0 32 0 33 0 
1251 -0.9737555864596901 -0.3927649055656076 0.1326131856003313 89 85 90 0.96 29 0 33 0 34 0 35 0 36 0 37 0 
1252 -1.4086527592871028 0.07282638180116807 -0.16074963538342946 124 101 98 0.44 29 0 31 0 35 0 
1253 -1.340835563131588 0.04979991158399155 -0.17161458910214467 103 64 58 0.54 29 0 31 0 33 0 35 0 37 0 
1254 -0.020584743278382 0.12009783672971341 -0.40490863346817785 97 77 65 0.52 29 0 31 0 32 0 33 0 
1255 -0.9185835757193546 -0.00650182792873677 -0.21624092203606116 155 151 150 0.86 29 0 31 0 33 0 
1256 0.7298489832817581 -0.22628880658743322 -0.25135267785132975 133 120 104 0.07 29 0 31 0 33 0 
1257 0.5289974800978032 -1.0903292089186876 0.2891855357129921 57 50 46 3.52 29 0 33 0 38 0 
1258 -0.8396815884173356 -0.4640886100622035 0.15546385226622583 100 101 101 0.49 29 0 33 0 34 0 35 0 36 0 37 0 
