# 3D point list with one line of data per point:
#   POINT3D_ID, X, Y, Z, R, G, B, ERROR, TRACK[] as (IMAGE_ID, POINT2D_IDX)
# Number of points: 456, mean track length: 4.17
347 0.4202160206577512 -0.2974245225231178 -0.05536309073976975 158 156 156 0.89 67 0 68 0 69 0 70 0 71 0 
348 -0.3930914405944643 -1.8781516979957575 -0.473145003079813 167 153 152 0.4 67 0 68 0 69 0 70 0 
349 0.4211878425821973 -0.32464077603317354 -0.06268309826668994 149 145 145 0.71 67 0 68 0 69 0 70 0 71 0 72 0 
350 0.47381132449614216 -0.20844515585825152 -0.034958005699372574 183 180 177 0.45 67 0 68 0 69 0 70 0 71 0 72 0 
351 0.5324972159178636 -0.10002022005574829 -0.010306202019134236 173 181 187 0.44 67 0 68 0 69 0 70 0 
352 0.5373776275125819 -0.08262248766126912 -0.004437543871511185 117 122 129 0.81 67 0 69 0 70 0 71 0 72 0 73 0 
353 0.45372986204525545 -0.2479568588685177 -0.050112647326552295 176 172 166 0.47 67 0 68 0 69 0 70 0 71 0 
354 -1.0612747335440393 0.8248369084567061 -0.36036576309656243 93 86 91 0.51 67 0 69 0 70 0 
355 -1.7493591612428836 1.194410435883018 -0.5127628760748824 98 96 101 0.44 67 0 68 0 69 0 
356 0.434622638037206 -0.28463821203164197 -0.0635037068505575 154 153 155 0.47 67 0 68 0 69 0 70 0 71 0 72 0 
357 0.4254056404804525 -0.03263396439576827 -0.040315494665690066 89 89 91 0.77 67 0 68 0 69 0 
358 -0.33813766497649556 0.4036022505233282 -0.2108911762151049 58 56 61 0.39 67 0 68 0 69 0 70 0 71 0 72 0 73 0 74 0 
359 0.4239822449013253 -0.017975861212552458 -0.041733034499100485 77 73 70 0.73 67 0 68 0 69 0 71 0 72 0 73 0 74 0 
360 0.061930760795857465 0.19386046512845267 -0.12268087683730755 92 98 103 1.53 67 0 68 0 69 0 71 0 72 0 73 0 76 0 77 0 
361 0.4822668548080087 -0.1917062485344021 -0.04597984151911971 158 160 168 0.47 67 0 68 0 69 0 70 0 72 0 
362 0.021689462195941145 -1.08200631915902 -0.2899227559242359 148 135 133 0.5 67 0 68 0 69 0 
363 -1.2753251064243916 0.9463135991885773 -0.4292654812514016 82 98 107 0.74 67 0 68 0 69 0 70 0 
364 0.13826730973906143 0.14999828359616962 -0.11103371767275405 103 104 110 1.49 67 0 68 0 69 0 70 0 73 0 
365 0.4404789290593245 -0.26507634946966796 -0.07340224606306611 133 129 126 0.26 67 0 68 0 69 0 
366 0.4370914063477376 -0.2975217199526212 -0.08175700190808222 134 128 130 0.41 67 0 68 0 69 0 70 0 
367 0.4476884470364759 -0.02720390707778919 -0.049737501827743946 108 109 112 1.1 67 0 68 0 69 0 70 0 71 0 72 0 73 0 74 0 
368 0.42600939821733985 -0.3309413134805136 -0.09301982412015875 118 124 134 0.76 67 0 68 0 69 0 70 0 72 0 
369 0.03132418210413035 0.2150570214311388 -0.14526741881933325 126 125 123 0.96 67 0 68 0 69 0 70 0 72 0 73 0 75 0 76 0 77 0 
370 -1.5660665987779803 1.1123215333677465 -0.5219766220846402 74 72 79 0.52 67 0 68 0 69 0 
371 -0.3613388060788938 -1.8483448035337857 -0.5212436803201738 79 94 105 0.23 67 0 68 0 69 0 70 0 
372 0.47306524350186785 -0.20719065158596428 -0.06638673573280984 166 169 169 1.47 67 0 68 0 69 0 
373 0.4696337971592375 -0.230253039669032 -0.07187043090910494 128 127 126 0.56 67 0 68 0 69 0 70 0 
374 -0.056311194027522715 0.2684393903088961 -0.17513965791504083 70 72 70 0.61 67 0 68 0 69 0 70 0 71 0 72 0 73 0 74 0 75 0 76 0 77 0 
375 -1.7186135334521637 1.2077468374314204 -0.5754451745539899 63 84 88 0.61 67 0 68 0 69 0 
376 -0.5024452343651202 -2.126403817789067 -0.6154144483376457 154 152 152 0.63 67 0 68 0 69 0 70 0 
377 0.4547032263587971 -0.2827773796911851 -0.08836255748907518 144 135 136 0.75 67 0 68 0 69 0 70 0 71 0 
378 0.45303028450587024 -0.2602033078312286 -0.0856533149465255 158 148 139 0.43 67 0 68 0 69 0 70 0 
379 0.028419145597154083 -1.0926982214000711 -0.3249802756596176 107 94 91 0.64 67 0 68 0 69 0 
380 0.5521549116901021 -0.0785727178036082 -0.03568767380178528 143 135 130 0.55 67 0 68 0 69 0 71 0 72 0 
381 -0.3219398037271388 0.408765312626893 -0.2540138814312125 46 40 42 0.64 67 0 69 0 71 0 72 0 73 0 
382 0.5017938571839735 -0.18478452363108888 -0.06767087080956768 181 188 193 0.5 67 0 68 0 69 0 
383 0.4241603339606217 -0.01631743470679392 -0.07270719158657069 103 103 101 1.85 67 0 68 0 69 0 70 0 71 0 72 0 74 0 
384 0.4601365942603819 -0.2549050886930656 -0.09471826012028783 159 155 149 0.62 67 0 68 0 69 0 70 0 71 0 
385 0.03322839045195969 0.2209112186933021 -0.17671026555121383 110 112 114 1.33 67 0 69 0 71 0 72 0 73 0 
386 -0.18434954490409905 -1.5201164305613237 -0.4705640088016586 107 82 87 0.29 67 0 68 0 69 0 70 0 
387 -0.25997074258803865 -1.633846422460679 -0.512560914420761 53 42 48 0.58 67 0 68 0 69 0 
388 0.45281639839838417 -0.012808362362216275 -0.07715083036487536 96 96 95 0.63 67 0 68 0 69 0 70 0 71 0 72 0 73 0 74 0 
389 0.14865761372339104 0.14570191905243257 -0.1584976736626993 66 63 73 0.42 67 0 68 0 69 0 70 0 71 0 72 0 
390 -0.32045892060346937 -1.7722852206328064 -0.5630133222519537 71 58 64 0.52 67 0 69 0 70 0 
391 0.4755375478476196 -0.24840368882529074 -0.10697180891831604 154 151 148 0.35 67 0 69 0 70 0 
392 0.4459312334176928 -0.3018303603418607 -0.12535316251260786 100 98 102 1.83 67 0 68 0 69 0 71 0 
393 0.45785191392194924 -0.27060140517911957 -0.11647915274564036 154 154 152 0.65 67 0 68 0 69 0 70 0 71 0 
394 0.5138853582775711 -0.04621135459911696 -0.07273922593879778 77 79 82 0.71 67 0 68 0 69 0 
395 0.0917916791153559 0.20225226720190503 -0.18562826488239637 92 100 102 2.27 67 0 68 0 69 0 70 0 71 0 72 0 
396 0.4177414527404075 0.013086737118822023 -0.10597704793940732 97 95 102 0.81 67 0 69 0 70 0 71 0 72 0 73 0 74 0 
397 0.03932792035072907 0.2413443543229129 -0.20432060743817515 96 105 111 0.48 67 0 68 0 69 0 70 0 
398 0.48522830526422145 -0.22424166376266885 -0.11375257062144284 124 121 121 0.65 67 0 68 0 69 0 70 0 
399 0.3480552918018691 0.04906753614996029 -0.1281313563490789 77 80 85 0.99 67 0 68 0 69 0 70 0 72 0 73 0 74 0 75 0 
400 -0.10482199527827607 0.31937598364399367 -0.2516805542821807 85 88 89 0.46 67 0 68 0 69 0 70 0 
401 -0.3517436478717362 -1.8795455393250897 -0.6265419171955 131 129 132 0.49 67 0 69 0 70 0 
402 0.47562069540877405 -0.2546056366915048 -0.129105061804077 131 130 130 0.54 67 0 69 0 71 0 
403 -0.39139514065587466 -2.111540470160837 -0.690600110529691 89 74 70 0.38 67 0 68 0 69 0 
404 0.5082468792763495 -0.19244710760073003 -0.11449001231608502 161 159 161 0.3 67 0 68 0 69 0 70 0 71 0 
405 -0.15199984067264705 -1.5035380786880146 -0.5258509228073134 116 91 96 0.7 67 0 68 0 69 0 70 0 
406 0.1609805623924334 0.15287628882017168 -0.19511580381157012 75 81 88 0.15 67 0 68 0 69 0 
407 0.467585932992838 -0.2746995157226356 -0.1437918408196719 109 105 109 0.62 67 0 68 0 69 0 70 0 71 0 72 0 
408 0.03567187345310763 0.24127219910283226 -0.2337319204575048 68 73 73 0.95 67 0 68 0 69 0 
409 -0.25076986502033516 -1.662993172144975 -0.5917330309348072 90 73 83 0.96 67 0 68 0 69 0 70 0 
410 -0.2941376190373073 -1.7612341248728656 -0.6266575854258398 87 61 68 0.41 67 0 68 0 69 0 70 0 
411 0.5218346550062238 -0.04375544977872026 -0.10108075806180139 93 94 96 0.85 67 0 68 0 69 0 70 0 72 0 73 0 74 0 
412 0.46373365094130947 -0.006214716314629443 -0.12014452449268154 79 82 85 1.1 67 0 68 0 69 0 70 0 71 0 72 0 73 0 74 0 
413 0.4798420328094066 -0.2351010660498608 -0.14669076109847912 116 117 115 0.25 67 0 68 0 69 0 70 0 71 0 
414 0.48453501130046717 -0.25083003998885767 -0.14889053613153336 123 122 121 0.72 67 0 68 0 69 0 70 0 71 0 
415 0.47153766465166425 -0.27598341380443536 -0.1587448544221075 93 92 100 0.53 67 0 68 0 69 0 70 0 72 0 
416 0.555413457209535 -0.11847910564516662 -0.11343770765028371 175 175 174 0.98 67 0 68 0 69 0 70 0 71 0 72 0 
417 0.540154917055667 -0.04380456153326995 -0.11050759939839483 79 77 79 0.81 67 0 68 0 69 0 70 0 71 0 72 0 73 0 74 0 
418 0.5791234074016762 -0.06744025728054359 -0.10000581242686857 103 96 100 0.38 67 0 68 0 69 0 70 0 71 0 73 0 
419 0.5098559927594388 -0.028324356739295675 -0.12080280375478836 68 64 65 0.64 67 0 68 0 69 0 70 0 71 0 72 0 73 0 74 0 
420 0.5139205692355875 -0.196787139768407 -0.14374130431219934 156 153 151 0.64 67 0 68 0 69 0 70 0 71 0 72 0 
421 0.46835218328792005 -0.0016820207067873572 -0.13473398774770962 77 74 79 0.78 67 0 69 0 70 0 71 0 72 0 73 0 74 0 
422 0.5126497301611337 -0.1681897584938543 -0.14070076880977522 143 144 147 1.99 67 0 68 0 69 0 70 0 
423 0.4968864598470255 -0.23390438567990524 -0.15804357893928578 113 110 109 0.46 67 0 68 0 69 0 70 0 71 0 
424 0.3695669773165424 0.0581629333353052 -0.1672418675471461 62 66 71 1.29 67 0 68 0 69 0 70 0 71 0 72 0 73 0 74 0 
425 0.19721459693518995 0.15604987069465348 -0.2182601371281232 108 115 122 2.78 67 0 69 0 70 0 71 0 72 0 73 0 
426 -0.21080862665708744 -1.6118966834349862 -0.6205208117960859 63 47 52 0.41 67 0 68 0 69 0 
427 -0.260734917227351 -1.6931558783530276 -0.6528152184607563 72 51 58 0.35 67 0 68 0 69 0 70 0 
428 0.5599847794143409 -0.055496579443090055 -0.12015829386726073 68 63 64 1.35 67 0 68 0 69 0 70 0 71 0 72 0 73 0 74 0 
429 0.048969269981852026 -1.1458258675574333 -0.47051974483577796 99 91 94 0.85 67 0 68 0 69 0 
430 0.5003009426639655 -0.23240627338911524 -0.17176710467581735 127 126 125 0.83 67 0 68 0 69 0 70 0 71 0 
431 0.5014396179070986 -0.22093204282805656 -0.16941339191025273 111 112 112 0.2 67 0 68 0 69 0 70 0 
432 0.5101580410991586 -0.20549350054604787 -0.16351093547444062 137 135 134 0.55 67 0 68 0 69 0 70 0 
433 0.48693151316658656 -0.26398441915660564 -0.18277900428735006 114 122 132 0.3 67 0 68 0 69 0 70 0 71 0 72 0 
434 0.47515471871455994 -0.2931296556359686 -0.1930278467359472 69 70 77 0.73 67 0 68 0 69 0 70 0 71 0 
435 0.5899482152805786 -0.06450654903351816 -0.12442799562474471 124 108 110 0.54 67 0 68 0 69 0 71 0 
436 -0.25509953349199876 -1.7998219708074412 -0.713474615048478 45 47 54 0.65 67 0 68 0 69 0 
437 0.5503227913135198 -0.04021979901991479 -0.13900523716869406 69 63 65 0.9 67 0 69 0 70 0 71 0 72 0 74 0 
438 0.5247650291059067 -0.18744767911982418 -0.1700405670490146 170 168 165 1.2 67 0 68 0 69 0 70 0 71 0 72 0 
439 0.49316652198255917 -0.2626757578157578 -0.19527932739359022 88 94 105 0.58 67 0 68 0 69 0 70 0 71 0 
440 0.5021218077121123 -0.24496681461586023 -0.19561130542390148 122 123 126 1.04 67 0 69 0 71 0 72 0 
441 0.5944842766331095 -0.060973565949072994 -0.13608282303397745 100 107 112 0.47 67 0 68 0 69 0 70 0 71 0 72 0 
442 0.47566973721237793 0.007776532909808176 -0.17583811778238 95 102 104 0.73 67 0 68 0 69 0 70 0 71 0 72 0 73 0 74 0 
443 0.5361769793280893 -0.15168761778836792 -0.17405590222664635 153 150 152 1.08 67 0 68 0 69 0 70 0 71 0 
444 0.5602610290302519 -0.1195318236172328 -0.1607886628234012 155 153 154 0.82 67 0 68 0 69 0 70 0 
445 0.5153130189980495 -0.2267983754475945 -0.19661079654122537 101 101 105 0.76 67 0 68 0 69 0 70 0 71 0 
446 0.5083550661301619 -0.20453380396633647 -0.1967196432343976 92 94 95 0.7 67 0 68 0 69 0 
447 -0.2535578709337256 -1.8057233631579606 -0.7510190686947685 117 112 110 0.55 67 0 68 0 69 0 
448 0.5291542070854656 -0.018299821554558005 -0.17282296520029483 73 74 74 0.5 67 0 68 0 69 0 70 0 71 0 72 0 73 0 74 0 
449 0.5597221586386765 -0.14327657237774505 -0.17947825322339606 184 187 190 0.6 67 0 69 0 70 0 71 0 
450 0.5596371673685676 -0.1365799323988014 -0.1789935913588545 183 185 186 1.14 67 0 68 0 69 0 
451 0.5642247081030487 -0.12543051452969134 -0.17581632414442727 178 175 173 1.0 67 0 68 0 69 0 70 0 71 0 
452 0.5799365836233747 -0.09466022209535252 -0.165469478206695 122 119 121 0.58 67 0 68 0 69 0 70 0 
453 0.597406449453411 -0.0754521137698857 -0.15552955294524917 125 117 120 0.33 67 0 69 0 70 0 
454 0.4797336162566792 0.01565155039897037 -0.20469284059403137 79 79 76 0.45 67 0 68 0 69 0 70 0 73 0 
455 -0.24871874699567864 -1.7757496705401974 -0.805076699766381 46 27 32 0.36 67 0 68 0 69 0 
456 0.5191604000703836 -0.2346289998941703 -0.22751080480551833 102 106 109 0.94 67 0 69 0 70 0 71 0 
457 0.5592541904379142 -0.15362459778894144 -0.20065729755157813 129 131 128 0.52 67 0 68 0 69 0 70 0 
458 0.44519032680812143 0.04126293813716331 -0.23425090132664872 106 108 111 0.81 67 0 69 0 70 0 71 0 72 0 73 0 74 0 
459 0.402620158682512 0.06825997584192933 -0.24916042824504814 85 80 83 1.12 67 0 69 0 70 0 71 0 72 0 73 0 
460 0.5505237067710318 -0.015483671517680597 -0.19743890764863825 65 53 57 0.68 67 0 68 0 69 0 70 0 71 0 72 0 73 0 74 0 
461 0.5814583566396145 -0.12053015940108391 -0.19991448192565886 99 93 97 0.57 67 0 68 0 69 0 70 0 71 0 
462 -0.20434212743262137 -1.7261579845550228 -0.8211179677637647 70 45 49 0.66 67 0 68 0 69 0 70 0 
463 -0.2029116207356505 -1.6749013938301784 -0.8123082933498627 67 52 61 0.74 67 0 68 0 69 0 70 0 
464 -0.0754978044788448 -1.4767825436659316 -0.7243540067865083 79 53 57 0.67 67 0 68 0 69 0 
465 -0.14013508557521193 -1.5888228750879207 -0.7731123148188962 74 55 59 0.61 67 0 68 0 69 0 
466 0.48373560235397295 0.027897081982345417 -0.23425094811693925 96 95 94 0.71 67 0 68 0 69 0 70 0 71 0 72 0 73 0 74 0 
467 0.5706130270752079 -0.139626423802506 -0.22361647875283008 145 143 145 1.63 67 0 69 0 70 0 71 0 
468 0.5850442724428071 -0.10769658075240118 -0.2133849349621424 136 139 141 1.56 67 0 69 0 71 0 
469 0.6125069633614759 -0.0672510983055351 -0.209257839759877 136 135 136 0.92 67 0 68 0 69 0 70 0 72 0 
470 -0.13590298462196793 -1.6150323288475539 -0.8217951450297394 61 40 44 1.04 67 0 68 0 69 0 70 0 
471 0.5714803206188528 -0.1528348297098725 -0.24285271016611154 98 92 92 1.22 67 0 68 0 69 0 70 0 71 0 72 0 
472 0.3001000921000252 0.16104649897035872 -0.3288194610373125 66 70 70 0.56 67 0 68 0 69 0 
473 -0.0005887108897921767 -1.3644922986092167 -0.7187465629294687 135 130 127 0.56 67 0 68 0 69 0 
474 0.5452621185681459 -0.0018094779043802411 -0.24333776118825146 85 86 87 1.86 67 0 68 0 69 0 70 0 71 0 72 0 73 0 74 0 
475 0.5169430694664296 0.018107052635711995 -0.2555552200920581 60 59 61 0.44 67 0 68 0 69 0 70 0 71 0 72 0 73 0 74 0 
476 0.604328974583783 -0.09173278773259108 -0.23168486214274564 112 112 109 0.82 67 0 68 0 69 0 
477 0.5651537053885758 -0.1809237484593067 -0.26425158083837474 96 91 91 0.37 67 0 68 0 69 0 70 0 
478 0.59863327774983 -0.10656821706347752 -0.23715339069608277 136 131 129 0.52 67 0 68 0 69 0 70 0 71 0 72 0 
479 0.09128008734123672 -1.160648373592856 -0.660825789662155 126 118 114 0.41 67 0 68 0 69 0 
480 0.6225609664029006 -0.10197423597594102 -0.23318827984612467 106 102 101 1.16 67 0 68 0 69 0 
481 -0.1692532639583011 -1.710854158701697 -0.8969745227239729 70 47 52 0.87 67 0 68 0 69 0 70 0 
482 -0.1623920055944772 -1.6664648645478048 -0.8887226098840175 73 53 64 1.55 67 0 68 0 69 0 70 0 
483 0.3599777748488038 0.15306716911445395 -0.3311231173154774 20 23 20 2.93 67 0 68 0 69 0 70 0 71 0 72 0 
484 -0.0928831791537359 -1.5696034497551532 -0.8430523857968586 54 37 42 0.48 67 0 68 0 69 0 
485 -0.0509313398535185 -1.4723947558100239 -0.8087430283171629 83 60 60 0.34 67 0 68 0 69 0 
486 -0.20643541484882255 -1.823944765259443 -0.9497123467648751 98 91 91 0.75 67 0 68 0 69 0 
487 0.44623184481519984 0.07843134886472913 -0.30747285843071004 30 31 29 0.55 67 0 68 0 69 0 70 0 71 0 72 0 73 0 
488 0.5540295540600788 -0.21559879566745632 -0.30646339263947997 91 93 95 0.89 67 0 68 0 69 0 70 0 71 0 72 0 
489 0.5673555668780625 -0.19039982975869352 -0.2961746354403447 98 100 99 0.56 67 0 68 0 69 0 70 0 71 0 
490 -0.11339773204632864 -1.6024480376265378 -0.8895057384200755 50 51 63 0.67 67 0 68 0 69 0 
491 0.5948847295162272 -0.14721887520310617 -0.2761190933198392 111 110 113 1.4 67 0 68 0 69 0 71 0 
492 0.6226947689019167 -0.06454563252104717 -0.2555368416677175 101 91 90 1.67 67 0 68 0 69 0 70 0 71 0 72 0 
493 0.35951384837399947 0.1470001418967256 -0.36173487227469203 41 46 44 1.68 67 0 68 0 69 0 70 0 71 0 
494 -0.16137563536573896 -1.71078805051317 -0.9535561118993063 57 42 45 0.38 67 0 68 0 69 0 70 0 
495 0.5486956964815344 -0.24565027758359814 -0.3276828045768676 49 50 54 2.32 67 0 69 0 71 0 
496 0.5642137072933708 -0.2225824950192884 -0.31763817449667187 67 68 71 0.34 67 0 68 0 69 0 
497 0.5201144296051157 0.029281186460478947 -0.3004983065771192 65 66 67 0.84 67 0 69 0 70 0 73 0 
498 0.5774668716844824 -0.1866755333571115 -0.3089677698131723 87 90 94 0.47 67 0 68 0 69 0 70 0 71 0 
499 0.5857326311127722 -0.1707501189708649 -0.3031084591966211 104 104 104 0.3 67 0 68 0 69 0 
500 0.5995946357850188 -0.14459416268928504 -0.29283186896812463 136 139 141 0.69 67 0 68 0 69 0 70 0 71 0 
501 0.3267126642716225 0.17423292038810267 -0.39005882584891727 28 31 29 0.38 67 0 68 0 69 0 
502 0.6232571241021179 -0.07576986118596984 -0.2730108484693772 108 100 100 0.14 67 0 68 0 69 0 
503 0.6393310835847059 -0.05466764962810766 -0.26242491585229555 87 76 77 0.53 67 0 68 0 69 0 70 0 71 0 72 0 
504 0.5708826088784391 -0.20727341369518848 -0.32923333157194756 73 74 78 0.72 67 0 68 0 69 0 70 0 71 0 
505 0.4708738188836581 0.07401207847591007 -0.344887855881739 74 80 73 1.06 67 0 68 0 69 0 70 0 71 0 72 0 73 0 
506 -0.18108664858712498 -1.8156532079105925 -1.040077113147255 80 56 57 0.73 67 0 68 0 69 0 70 0 
507 0.5073823851547801 0.057522668712595926 -0.33247106718001396 64 68 70 1.56 67 0 68 0 69 0 70 0 73 0 
508 0.020875561633293627 -1.4018314488722472 -0.8653037571103481 150 134 125 0.41 67 0 68 0 69 0 
509 0.49475887119959716 0.07139714347295179 -0.3492900007908881 61 70 58 2.99 67 0 68 0 69 0 70 0 72 0 
510 0.6527009246817406 -0.036879751874042355 -0.2838896963479507 49 50 43 0.33 67 0 68 0 69 0 
511 -0.12455259119586226 -1.7013738468142683 -1.0415106162666274 50 34 38 0.93 67 0 68 0 69 0 
512 -0.09826302441805224 -1.6146300967288858 -1.0198227743150294 56 36 39 0.67 67 0 68 0 69 0 
513 0.08675086179733227 -1.291391063169625 -0.8521686779708597 88 91 97 0.13 67 0 68 0 69 0 
514 0.6558479480161268 -0.031699238152722686 -0.29866129635993977 63 64 63 0.58 67 0 68 0 69 0 70 0 71 0 72 0 
515 -0.1961498137221791 -1.90247712286574 -1.1423130114708488 54 58 63 0.17 67 0 68 0 69 0 
516 -0.07742734971079002 -1.5766402236651091 -1.0078516040905172 66 49 56 0.42 67 0 68 0 69 0 
517 -0.11119832950649888 -1.74647699489755 -1.067677592590095 49 47 50 0.58 67 0 68 0 69 0 70 0 
518 0.018395713244649725 -1.4424660512978367 -0.9336722818365989 68 51 54 0.18 67 0 68 0 69 0 
519 -0.2376667071540126 -2.025521227874866 -1.2005820377498198 46 49 54 0.6 67 0 68 0 69 0 70 0 
520 0.6410907859778086 -0.10201142977746502 -0.33420396267920993 134 140 132 1.14 67 0 68 0 69 0 70 0 71 0 72 0 
521 0.6508659749107573 -0.0718363970527276 -0.32474408206276006 125 124 125 0.51 67 0 68 0 69 0 70 0 71 0 
522 -0.10423376783789196 -1.7552778247557441 -1.1033561368051412 36 42 45 0.65 67 0 68 0 69 0 
523 0.6719697658767412 -0.030732270092513114 -0.321626407762047 55 49 45 0.26 67 0 68 0 69 0 
524 0.6577203735296668 -0.0759919029711621 -0.3397029127976843 132 127 130 1.56 67 0 68 0 69 0 70 0 71 0 
525 0.6697801592540864 -0.04776731668863632 -0.3323224261613431 120 117 113 0.53 67 0 68 0 69 0 70 0 71 0 
526 0.043546690085215944 -1.4359440000059847 -0.9888897472765631 125 134 135 0.34 67 0 68 0 69 0 
527 0.6753006026547428 -0.02556561385933165 -0.33965278551044764 71 75 67 0.63 67 0 68 0 69 0 70 0 
528 0.619070193543833 -0.17352429402670844 -0.4062994794456758 61 56 58 0.19 67 0 68 0 69 0 
529 0.6492003768218251 -0.11308847400712563 -0.3797373035045535 100 104 86 0.69 67 0 68 0 69 0 71 0 
530 0.23994897031659312 -1.4419788021157607 -0.9111292515125313 138 140 158 0.43 67 0 68 0 69 0 70 0 
531 0.6479223974008013 -0.14143720114289104 -0.4047632949979387 94 90 89 0.47 67 0 68 0 69 0 
532 0.6146955470618531 -0.20182024228790907 -0.4409883212342516 50 49 45 0.92 67 0 68 0 69 0 70 0 71 0 
533 0.6484367308850543 -0.1288045833397793 -0.41539953986268996 96 103 106 0.42 67 0 68 0 69 0 70 0 
534 0.3594581224854918 -1.0686061733304197 -0.8027868457215117 120 145 157 0.54 67 0 68 0 69 0 
535 0.6686967520796456 -0.09417139849310563 -0.4010770712484556 85 86 82 0.88 67 0 68 0 69 0 70 0 
536 0.6161075272230885 -0.21074995601471813 -0.46158925252979244 63 66 65 0.37 67 0 68 0 69 0 70 0 71 0 
537 0.4106434975948894 -1.072620361247056 -0.7788111142580983 155 159 170 0.22 67 0 68 0 69 0 70 0 
538 0.44512190604549473 -0.896686711675096 -0.7305194045688093 137 157 181 0.2 67 0 68 0 69 0 
539 0.7159755020594478 -0.05851906246625527 -0.39236191758422834 81 97 69 1.23 67 0 69 0 70 0 
540 0.6694435740487792 -0.12296907969548543 -0.4755757673485441 28 27 24 0.79 67 0 68 0 69 0 
541 0.7604582175566101 -0.14662133699686875 -0.44896050972498724 113 116 146 0.34 67 0 68 0 69 0 70 0 71 0 
542 0.8102999757395144 -0.07658093508154962 -0.42668376257728546 137 145 155 0.47 67 0 68 0 69 0 
543 0.20181760154069495 -0.3313265134666984 0.5619118896638597 184 177 175 0.56 68 0 69 0 70 0 
544 0.28600298804026925 -0.16230862840412041 0.5348118098719836 119 119 119 0.58 68 0 69 0 70 0 71 0 72 0 
545 0.3061804164260631 -0.16870035159862917 0.5301314810148552 139 153 161 0.51 68 0 70 0 72 0 
546 0.24799071385045135 -0.27178279521029924 0.5302391422784776 212 205 199 0.23 68 0 69 0 70 0 
547 0.19439382855738963 -0.11688182668797342 0.520866451901657 116 109 104 0.33 68 0 69 0 70 0 
548 0.24832171212346643 -0.13483712670988468 0.5052899353399414 121 115 111 0.19 68 0 69 0 70 0 71 0 72 0 
549 0.3170556999892298 -0.1651674168529117 0.4966794617227075 138 149 155 0.49 68 0 69 0 70 0 71 0 72 0 
550 0.22985209147785945 -0.12218822637824889 0.49918844932162854 133 128 121 0.54 68 0 69 0 70 0 71 0 
551 0.15852599012178814 -0.08784291032076785 0.5052053630986357 124 121 117 0.29 68 0 69 0 70 0 71 0 
552 -0.7513883795465541 0.41018226234605726 0.5947520487209583 42 41 46 0.81 68 0 70 0 71 0 72 0 74 0 
553 -0.019552858673413054 -0.04866969242865149 0.5086522075429087 109 132 146 0.71 68 0 69 0 70 0 
554 0.2936893204985249 -0.142858646442097 0.47277636061074313 116 116 116 0.4 68 0 69 0 70 0 71 0 72 0 
555 0.3309315653454237 -0.15986831574084615 0.4681773138798597 123 137 146 0.69 68 0 69 0 70 0 71 0 72 0 
556 0.13533184393397835 -0.07624550523204143 0.4848214894820524 118 111 108 0.49 68 0 69 0 70 0 71 0 
557 -0.08286465011059385 -0.8293917236515669 0.4951924723364063 201 193 191 0.52 68 0 69 0 70 0 
558 0.12522617575280903 -0.06357853253986234 0.47989674663738846 113 112 110 0.54 68 0 70 0 71 0 72 0 
559 0.1964102186635286 -0.09578617852640847 0.47041259985619166 120 117 115 0.27 68 0 69 0 70 0 
560 0.3095010803364031 -0.1446430945615852 0.45728997186689657 114 134 145 0.31 68 0 69 0 70 0 71 0 72 0 
561 -0.7590648584615713 0.38432181767080553 0.5484699233439505 112 120 122 0.35 68 0 70 0 71 0 
562 0.21459476595685678 -0.3589875303278669 0.4530313166286122 193 188 185 0.91 68 0 69 0 70 0 71 0 
563 0.02320519505545615 -0.6685032331328448 0.4539819492813997 147 153 165 0.53 68 0 69 0 70 0 71 0 
564 0.30852146069886843 -0.13212663060009955 0.44126606156330106 117 111 110 1.8 68 0 69 0 70 0 71 0 72 0 73 0 
565 0.34594346691892475 -0.15413927369703762 0.4365290181725501 133 142 148 0.44 68 0 70 0 71 0 72 0 73 0 
566 0.2571642599001427 -0.11444855318982339 0.4431898230405136 113 108 108 0.45 68 0 69 0 70 0 71 0 72 0 
567 0.24818406045797015 -0.3205403923193402 0.42494938062446797 178 166 161 0.46 68 0 69 0 71 0 
568 0.2967463390151359 -0.12428658759145284 0.42388396317819277 130 133 134 0.72 68 0 69 0 70 0 71 0 72 0 73 0 
569 0.3339414032888912 -0.14048635935136733 0.41943235134513435 129 132 135 0.86 68 0 69 0 70 0 71 0 72 0 73 0 
570 0.35708941612412803 -0.15051086998587837 0.4126680194956447 124 130 137 0.44 68 0 69 0 70 0 71 0 72 0 73 0 
571 -0.6316220585830201 0.3067373721670411 0.4760832353949347 59 60 62 0.44 68 0 70 0 71 0 
572 0.2998320134987409 -0.12213365790511876 0.4067459571025247 139 138 139 0.42 68 0 69 0 70 0 71 0 72 0 73 0 
573 -0.31526497344415105 0.17547390230192195 0.4319403389591763 91 101 119 0.33 68 0 69 0 71 0 
574 0.21020232402834327 -0.0732801348206531 0.39385125255267095 113 109 103 0.76 68 0 69 0 70 0 71 0 72 0 73 0 
575 -0.7036480256965152 -1.921240642604087 0.3720727884653463 205 208 212 0.52 68 0 69 0 70 0 
576 0.17670105425199023 -0.4733639382048831 0.3687849616280028 208 206 210 0.35 68 0 69 0 70 0 
577 0.15695038793670468 -0.042391259579081186 0.377791859489214 112 110 107 0.88 68 0 69 0 70 0 71 0 72 0 74 0 
578 -0.5519424533083741 0.2472215895792046 0.40699793958488617 123 144 160 0.46 68 0 69 0 70 0 71 0 
579 -0.2756596840372463 0.1745976803116741 0.38609053924710457 114 120 125 0.53 68 0 69 0 71 0 
580 -0.5898739722475399 0.27754433265225475 0.3923869786024978 123 142 157 0.42 68 0 69 0 70 0 
581 -0.08405335190586771 0.06490430689969828 0.3739045232744047 126 126 126 0.54 68 0 69 0 70 0 71 0 
582 -0.14044156983254852 0.10575385000102211 0.36739789626848385 118 126 137 0.36 68 0 69 0 70 0 
583 -0.014803286320745679 -0.00567518704097536 0.3579213569396327 117 137 155 0.37 68 0 69 0 70 0 71 0 72 0 
584 -0.33198385974206857 0.2043787261548512 0.362237997569397 108 105 106 0.17 68 0 69 0 71 0 
585 0.20478609584195118 -0.05187543895816826 0.3454615092986364 126 121 115 0.8 68 0 70 0 71 0 
586 0.2719900150974881 -0.08290361147765768 0.33742477931092685 118 117 114 0.63 68 0 69 0 70 0 71 0 72 0 73 0 
587 0.17945912405831876 -0.03633151962352987 0.3366812801874439 117 116 113 0.72 68 0 69 0 70 0 71 0 72 0 74 0 
588 -0.004716289362211468 -0.8203381755183267 0.30489896793004423 163 153 156 0.22 68 0 69 0 70 0 
589 -0.5191254875898661 0.25751641692062843 0.3426473807773287 109 133 151 0.52 68 0 69 0 70 0 
590 0.28113394973474937 -0.3239067443491488 0.31909489692693116 156 149 148 0.34 68 0 69 0 70 0 
591 0.33628826462212413 -0.10964944685495182 0.3264826264477998 116 115 114 0.98 68 0 69 0 70 0 71 0 72 0 73 0 
592 0.2314694251801015 -0.05026574271771389 0.32231634648683394 126 126 123 0.47 68 0 70 0 71 0 72 0 
593 -0.1895083583965409 -1.1246059673475544 0.2806252854843756 177 180 187 0.31 68 0 69 0 70 0 71 0 
594 0.375688802444637 -0.17309590931113739 0.3186889505399013 159 170 175 0.27 68 0 69 0 70 0 
595 -0.5641856420005242 0.2877704823965824 0.3273530499064028 122 143 161 0.18 68 0 69 0 70 0 
596 -0.08387193881259258 -0.9496184826225771 0.28232038169439067 194 198 200 0.5 68 0 69 0 70 0 71 0 
597 0.39863182666132446 -0.13544955888530508 0.3137621518642084 115 125 134 0.26 68 0 69 0 70 0 71 0 72 0 73 0 
598 0.36533930393216196 -0.1961245963502416 0.3083184640867729 185 180 167 0.32 68 0 69 0 70 0 71 0 
599 0.3009020401356721 -0.0868063269327467 0.3130524127023566 116 113 114 0.32 68 0 69 0 71 0 73 0 
600 0.1798974914234137 -0.02928371683605835 0.3089334539721649 86 83 84 0.31 68 0 69 0 70 0 71 0 
601 0.15682738832279175 -0.5346026117869898 0.2865107381261862 193 186 186 2.0 68 0 69 0 70 0 
602 0.38191174620077395 -0.12213534398065884 0.30779361107068315 76 77 88 0.75 68 0 69 0 70 0 71 0 72 0 73 0 
603 0.36588921612653125 -0.11262812590916538 0.3025045222455409 94 98 110 0.47 68 0 70 0 71 0 72 0 73 0 
604 0.3171087292093262 -0.0777494806993716 0.28681620353068205 110 112 114 2.01 68 0 69 0 70 0 71 0 72 0 73 0 
605 0.16284304476750244 -0.5589166021267624 0.25430321696034364 143 141 156 0.37 68 0 70 0 71 0 72 0 
606 -0.16490947429645098 0.15536381961157708 0.270061954263648 131 136 142 1.12 68 0 70 0 71 0 
607 0.287035508478245 -0.058437241427917175 0.27557185603613865 120 115 112 1.07 68 0 69 0 70 0 71 0 72 0 73 0 
608 0.25276092564487485 -0.042155422450431135 0.267331406426361 111 107 102 0.52 68 0 70 0 71 0 72 0 
609 -0.36467538902331476 0.2556917301231162 0.24978607187242985 83 101 118 4.18 68 0 69 0 70 0 72 0 
610 0.3339433882309779 -0.07876413780707181 0.2644543589755348 127 131 135 0.59 68 0 70 0 71 0 72 0 
611 0.4198447684134632 -0.12744836837688356 0.26548907209606387 121 137 146 0.5 68 0 69 0 70 0 71 0 72 0 73 0 
612 0.37670854956241073 -0.20198514436715564 0.2539285783832177 172 169 165 0.18 68 0 69 0 70 0 
613 -0.25305068690652166 0.2096118635749179 0.23923419603883578 134 139 142 0.37 68 0 69 0 70 0 71 0 
614 0.2939630595466858 -0.06668810739749298 0.2539978870039741 115 110 106 0.72 68 0 69 0 70 0 71 0 72 0 73 0 
615 0.15954354379261093 0.0038245752276647726 0.25069795687579055 104 100 95 1.33 68 0 70 0 71 0 72 0 75 0 
616 0.18672288503747314 -0.5367156892619638 0.2235114914073426 203 205 205 0.81 68 0 69 0 70 0 71 0 
617 0.35493317042154726 -0.2487932008688064 0.24710562971529493 217 227 232 0.37 68 0 69 0 70 0 
618 0.4185761792938003 -0.1489338488723203 0.2559344430022257 177 172 171 2.11 68 0 69 0 70 0 71 0 
619 0.21840264206211302 -0.034339574476490387 0.244182470791924 124 121 115 2.05 68 0 69 0 70 0 71 0 72 0 75 0 
620 -0.8535389556558669 -2.4412077159602403 0.07353593080406773 204 211 221 0.82 68 0 70 0 71 0 72 0 
621 0.12729874961176058 0.024107968249992395 0.24040613335013972 91 81 78 0.37 68 0 70 0 71 0 72 0 75 0 
622 0.3443268943447897 -0.27971759289956477 0.23564069514919517 170 159 158 1.06 68 0 69 0 70 0 71 0 
623 -1.2253964094518268 0.6967214789385471 0.18806910421199796 124 138 150 0.41 68 0 69 0 71 0 
624 0.16806074136694904 0.006961967790856782 0.23631119731785732 126 120 117 0.47 68 0 69 0 70 0 71 0 72 0 
625 -0.015367017874804878 0.10830390688197233 0.22696777929636935 82 76 72 0.5 68 0 69 0 70 0 71 0 
626 0.41606112976488974 -0.14925864391566745 0.2401198520237675 151 150 158 0.2 68 0 69 0 70 0 
627 0.2939948526556686 -0.37112777879893766 0.21636508288393652 166 163 161 0.26 68 0 69 0 70 0 
628 -0.604329545714813 -1.938953514448269 0.07431383956693605 217 212 211 0.59 68 0 70 0 71 0 72 0 
629 0.2522484999153727 -0.433300585991917 0.20902712365860632 183 177 177 0.52 68 0 69 0 70 0 71 0 
630 -1.7564187907004203 0.9777933695604916 0.14189466899705838 135 116 113 0.63 68 0 70 0 71 0 72 0 73 0 
631 0.2308330398615679 -0.017549393214019493 0.22884672288491714 118 116 113 0.6 68 0 69 0 70 0 71 0 72 0 
632 -0.48695030876331935 0.2974967779617993 0.1916765863031662 102 125 143 0.49 68 0 69 0 70 0 
633 0.056112887413955814 0.06728920161207508 0.2164006474436202 125 123 121 0.87 68 0 70 0 71 0 72 0 74 0 75 0 76 0 
634 0.3735446492371579 -0.09239445893163045 0.22942231100881338 81 79 85 0.63 68 0 69 0 70 0 71 0 72 0 73 0 74 0 
635 0.04757505017499475 -0.8044239583428728 0.16343033117092776 162 150 160 0.15 68 0 70 0 71 0 72 0 
636 0.14543563121430747 -0.6339292524035087 0.17314078692775525 150 149 156 0.28 68 0 69 0 70 0 
637 0.24588092017053986 -0.023850759575300695 0.21378575887794526 81 68 70 0.65 68 0 69 0 70 0 71 0 72 0 73 0 
638 0.08922248598268134 0.05591736644062073 0.19921733155862165 103 103 103 1.72 68 0 69 0 70 0 72 0 76 0 
639 -1.753205544189969 1.0001439555501617 0.08655175295446482 117 104 105 1.26 68 0 70 0 71 0 72 0 73 0 74 0 75 0 76 0 77 0 
640 0.21056919063191293 -0.5324843826804875 0.16794155284085677 131 129 135 0.48 68 0 69 0 70 0 71 0 
641 0.2140991224925779 -0.005143470578084175 0.20051622483420317 104 96 95 0.56 68 0 69 0 70 0 71 0 72 0 
642 -2.1026045258441837 1.1983508636744191 0.05772883081707891 44 41 43 1.89 68 0 70 0 71 0 72 0 73 0 74 0 75 0 76 0 77 0 78 0 
643 0.445801651778406 -0.11752073868094692 0.21264697375448938 106 107 114 0.61 68 0 69 0 70 0 
644 0.05670350409236624 0.08029948877028137 0.18711490972530598 98 96 94 1.38 68 0 69 0 70 0 71 0 72 0 74 0 75 0 76 0 
645 0.4068853980037559 -0.09877581389123635 0.20306343622331235 116 111 110 1.03 68 0 69 0 71 0 72 0 73 0 74 0 
646 -0.9942752329630398 0.5797345791476677 0.10379880264277941 121 133 147 0.62 68 0 69 0 71 0 72 0 73 0 
647 0.020147176720257454 0.09907005647554479 0.173679391220652 135 140 139 0.91 68 0 69 0 71 0 
648 -0.25516363711738177 -1.3584366691245546 0.056261301815280884 169 161 160 0.49 68 0 69 0 70 0 71 0 72 0 
649 0.38382244181588354 -0.23045430103798048 0.18616918752719158 146 141 143 0.26 68 0 69 0 70 0 
650 0.3170222298710186 -0.04757585613745685 0.18601369546456392 114 108 103 0.58 68 0 69 0 70 0 71 0 72 0 73 0 
651 0.026835623890052895 0.10336862328546237 0.16285552577721507 126 125 122 0.64 68 0 69 0 71 0 72 0 76 0 
652 -0.25761754710269646 0.2560224675086292 0.1414833005043048 85 80 75 0.9 68 0 69 0 70 0 72 0 73 0 74 0 75 0 76 0 77 0 
653 0.2956526926539975 -0.03301865722566777 0.17930088834169133 115 116 115 0.83 68 0 69 0 70 0 71 0 72 0 73 0 
654 0.4537579161392691 -0.11492930885128705 0.18691136406854336 102 109 119 0.55 68 0 69 0 70 0 71 0 72 0 
655 0.23989795701436667 -0.4960622415009732 0.13685965604048111 135 139 147 0.46 68 0 69 0 70 0 71 0 
656 0.39165761958324663 -0.07809970921731157 0.18014047262532795 121 123 128 1.05 68 0 69 0 71 0 72 0 73 0 74 0 
657 0.2020538466079469 0.022337593524963895 0.15948257048142978 84 77 79 0.56 68 0 69 0 70 0 71 0 72 0 
658 0.0299118998310266 0.11149447641317856 0.14445343952871692 86 94 106 0.82 68 0 69 0 70 0 72 0 74 0 75 0 76 0 
659 0.35793604579697536 -0.06505613767184049 0.1693832058391258 118 118 117 0.44 68 0 69 0 71 0 
660 0.31110098138494924 -0.35263955570574723 0.14341669183658534 207 204 202 0.25 68 0 69 0 70 0 71 0 
661 0.23599616988978545 0.0008634216383697213 0.15528477517396588 115 115 120 0.76 68 0 69 0 71 0 72 0 
662 0.38369191540196845 -0.07071535046429644 0.16122027036392828 95 94 99 0.77 68 0 69 0 70 0 71 0 72 0 73 0 74 0 
663 0.059857672229818304 0.10090495251691178 0.1286581450910651 120 115 113 0.73 68 0 69 0 70 0 71 0 72 0 73 0 74 0 75 0 76 0 
664 0.2613089794248411 -0.48129210387975196 0.11356619425770487 155 146 153 0.45 68 0 69 0 70 0 
665 0.35164693378475076 -0.29974466373955777 0.13576327477260186 196 192 190 0.75 68 0 69 0 71 0 
666 0.43328561552700307 -0.09282603805931666 0.14973450373753172 85 85 97 0.57 68 0 69 0 70 0 71 0 72 0 73 0 74 0 
667 -0.10295934474131063 0.1864462822623042 0.09102538966974794 117 122 128 1.58 68 0 69 0 71 0 73 0 75 0 
668 0.17592507947054892 -0.6435906729950127 0.07112562542796419 129 134 144 0.27 68 0 70 0 71 0 
669 0.4680258776797668 -0.10949071769827823 0.1482372370967746 97 107 114 0.5 68 0 69 0 70 0 71 0 72 0 74 0 
670 0.0746523300562163 -0.8215733532627709 0.04141809710149502 103 99 116 0.49 68 0 69 0 71 0 
671 0.2502313247735921 0.007400525268066338 0.12306889755168227 123 120 123 0.96 68 0 69 0 70 0 71 0 72 0 74 0 
672 0.44818383304433307 -0.15358028227381937 0.13046382228726827 162 159 158 0.37 68 0 69 0 71 0 
673 -0.1701082499178057 0.23856203862863035 0.061372307048604524 76 78 87 0.84 68 0 69 0 70 0 71 0 73 0 74 0 76 0 77 0 
674 0.47818304908751696 -0.10657108832898587 0.13734881527313458 153 153 156 0.39 68 0 69 0 70 0 73 0 
675 0.26846337615686955 3.8459610150476387e-05 0.1101175124931073 99 100 90 0.95 68 0 70 0 71 0 72 0 73 0 74 0 
676 0.43578364821612525 -0.08398375189769458 0.12394463489780305 86 80 82 0.64 68 0 69 0 70 0 71 0 72 0 73 0 74 0 
677 0.3008142853701481 -0.009925189823181468 0.10706719141992882 118 121 128 0.49 68 0 70 0 71 0 72 0 
678 0.2595560452692187 0.015427078365371383 0.09235240645148868 53 57 61 0.49 68 0 69 0 70 0 71 0 72 0 73 0 74 0 75 0 
679 -0.15435127143909422 0.24230109977895709 0.028396822935055743 114 112 112 0.63 68 0 69 0 70 0 71 0 72 0 73 0 74 0 75 0 76 0 77 0 
680 0.36207206975465467 -0.04022188284461048 0.0968277612471462 97 96 99 0.48 68 0 69 0 70 0 71 0 73 0 
681 0.3073615228655442 -0.4411727928447 0.055123059246095174 185 180 177 0.61 68 0 69 0 70 0 
682 0.4849119978320531 -0.10274159951267248 0.11036173541223171 117 127 134 0.53 68 0 69 0 70 0 71 0 72 0 73 0 74 0 
683 0.3282755523768286 -0.017456088289924065 0.0846160723220386 108 114 119 1.34 68 0 70 0 71 0 72 0 73 0 74 0 
684 -4.333032591757812 -7.462047914344062 -1.3280933222553362 156 193 196 0.2 68 0 70 0 71 0 
685 0.32021684100644543 -0.4204300554420033 0.047029293047512466 172 167 162 0.24 68 0 69 0 70 0 
686 0.30665622367112655 0.00019627884418460528 0.07878833327031876 127 129 133 1.0 68 0 69 0 70 0 71 0 72 0 73 0 74 0 
687 -0.5206329277828294 0.4701331972130097 -0.04180201244202797 54 62 73 0.38 68 0 69 0 70 0 71 0 
688 0.3373023031955509 -0.0295955843611605 0.07535172026477133 100 94 92 1.82 68 0 70 0 71 0 72 0 74 0 
689 -0.2880908545351415 0.32351217702332546 -0.01943517427778163 122 122 122 0.74 68 0 70 0 71 0 72 0 74 0 75 0 76 0 
690 -4.539040805247287 -7.578213983190955 -1.4600118462988292 147 170 171 0.2 68 0 70 0 71 0 
691 0.3188999351754813 -0.43087908141649356 0.0297278900804967 153 157 162 0.22 68 0 69 0 70 0 
692 0.4393948767115814 -0.06565664510173619 0.08031051378841703 102 98 94 0.81 68 0 70 0 71 0 72 0 73 0 74 0 
693 0.47334635347965137 -0.15800878218662473 0.07662781792200146 124 137 153 0.29 68 0 69 0 70 0 
694 -4.3122161290031835 -7.509807864453164 -1.4784821078477401 136 184 193 0.28 68 0 70 0 71 0 
695 0.4929564929817889 -0.11706366159660475 0.08131374845774086 169 175 182 0.12 68 0 69 0 70 0 
696 0.1539530248345773 0.05001098240877411 0.026735549381185386 84 81 75 2.71 68 0 69 0 70 0 71 0 72 0 
697 -4.152198616872683 -7.094975652796924 -1.4428497861623746 213 213 214 0.23 68 0 70 0 71 0 
698 0.280136391571727 0.0220674979181521 0.03901481404168283 91 96 100 0.8 68 0 69 0 70 0 71 0 72 0 73 0 74 0 75 0 
699 -0.29789414104422285 0.34307238202943025 -0.0603959158522025 124 126 130 0.45 68 0 69 0 70 0 71 0 
700 -0.4159506490421132 0.40794413031393895 -0.07933501627379136 123 127 131 0.87 68 0 69 0 70 0 71 0 72 0 73 0 74 0 75 0 
701 0.06160236053880097 0.15260518952021485 -0.006283409259006945 129 131 134 0.54 68 0 69 0 70 0 73 0 75 0 77 0 
702 0.020076820636466763 0.17519051882975833 -0.020310336137303375 99 96 97 0.71 68 0 69 0 70 0 71 0 72 0 73 0 74 0 75 0 76 0 77 0 
703 0.144235241259711 0.05214280040619812 -0.00767218626547983 100 108 112 0.4 68 0 69 0 71 0 
704 0.3292262166014608 0.00492545466334493 0.028776409115865764 121 115 115 0.67 68 0 70 0 71 0 72 0 73 0 74 0 
705 0.3696645984491933 -0.38168745539873694 -0.002753813834730501 170 166 164 0.74 68 0 69 0 70 0 71 0 
706 0.37550649316145646 -0.017500373658559054 0.027516431074900094 58 51 58 0.54 68 0 69 0 70 0 71 0 72 0 73 0 74 0 
707 -4.06725356184397 -7.219918556184468 -1.6312323292126076 175 213 229 0.37 68 0 70 0 71 0 
708 0.0007398791683439487 0.1964168224626629 -0.04006865020759243 121 125 133 1.31 68 0 70 0 73 0 75 0 76 0 77 0 
709 0.5109136906997918 -0.09408213919241293 0.04861630303682518 119 131 142 0.29 68 0 69 0 70 0 72 0 
710 0.3659748214880223 -0.3804918285755028 -0.01881605233244188 165 164 166 0.6 68 0 69 0 70 0 71 0 
711 0.3704947609756728 -0.016283196495643804 0.011608089895157825 83 77 77 0.59 68 0 69 0 70 0 73 0 74 0 
712 -0.17532979061963405 0.29662850732518276 -0.09166440569290168 85 85 83 0.59 68 0 69 0 70 0 
713 0.2088183489839046 0.027784620675436633 -0.02608053755632911 113 119 119 1.63 68 0 69 0 70 0 71 0 73 0 74 0 75 0 
714 -0.46842105008346446 0.4656943617032684 -0.15444284332439562 47 44 46 0.97 68 0 70 0 71 0 73 0 74 0 
715 -0.3832730090993477 0.35477769536703463 -0.14678397855138514 44 39 34 0.69 68 0 69 0 70 0 71 0 72 0 73 0 74 0 75 0 
716 -3.7210487285606924 -6.895989285409484 -1.6550377576346593 188 217 225 0.32 68 0 70 0 71 0 
717 0.5148228043851535 -0.07955130248694986 0.01822900117252102 110 111 116 0.53 68 0 69 0 70 0 71 0 72 0 73 0 74 0 
718 0.5181721202198963 -0.11980376284894434 0.01304440077722746 164 157 153 0.55 68 0 69 0 70 0 
719 -1.1961471581008398 0.8903860747144924 -0.33398973843821866 131 136 144 0.18 68 0 69 0 70 0 
720 0.46011288286795193 -0.2176558393857947 -0.013198992775911966 184 182 182 0.38 68 0 69 0 70 0 71 0 72 0 
721 -0.813899261109432 0.674718101299462 -0.27633820208033155 46 53 54 0.5 68 0 69 0 70 0 71 0 72 0 73 0 
722 0.11691508543563445 0.1347547713852476 -0.08245290138623407 84 80 90 0.49 68 0 69 0 71 0 
723 0.39421248671995124 -0.35951399150796315 -0.06372616904529549 165 158 155 0.12 68 0 69 0 70 0 71 0 
724 -0.3385328783649941 0.363242930404711 -0.21088351277843698 86 90 93 0.59 68 0 69 0 70 0 71 0 72 0 73 0 74 0 75 0 76 0 
725 -0.9143440368252973 0.7146663689747966 -0.3428334385603462 115 117 116 0.82 68 0 69 0 70 0 
726 0.5422384175409023 -0.08090275753821619 -0.017717507893302065 112 119 123 0.62 68 0 69 0 70 0 71 0 72 0 73 0 
727 0.18260737088811196 0.06700373185610575 -0.10886541168150865 131 143 155 0.54 68 0 69 0 70 0 71 0 72 0 73 0 74 0 75 0 
728 0.4120627259784373 -0.3379238117873071 -0.08362511353860635 136 136 140 0.81 68 0 69 0 70 0 71 0 
729 0.5282968710508753 -0.07097038310036108 -0.02692557885014013 93 88 89 0.54 68 0 69 0 70 0 71 0 72 0 73 0 74 0 
730 0.13298295521206493 0.10032625871427381 -0.1255535410280455 107 115 125 0.69 68 0 69 0 70 0 71 0 72 0 73 0 74 0 75 0 
731 0.32920775931676416 0.039523519764463555 -0.07548287943798737 87 87 88 1.42 68 0 70 0 71 0 72 0 73 0 74 0 75 0 
732 0.4135741230295704 -0.32153085856580965 -0.09343906631229815 162 160 161 0.84 68 0 70 0 71 0 72 0 
733 0.12991153318204152 0.140860465510383 -0.12986263313196678 79 76 80 0.59 68 0 69 0 71 0 
734 -0.7940573332377778 0.636085332934088 -0.36621049211334267 105 111 115 0.68 68 0 69 0 70 0 71 0 72 0 
735 -0.11797118520184546 0.31237206425619835 -0.19384926639314948 107 108 107 1.21 68 0 69 0 71 0 73 0 74 0 76 0 
736 0.4946076051990842 -0.34947531738578264 -0.081247781996453 135 126 119 1.28 68 0 69 0 70 0 71 0 
737 0.5158358672654366 -0.05717948188305111 -0.04336013474759559 121 120 119 0.77 68 0 69 0 70 0 71 0 72 0 73 0 74 0 
738 0.4769395900504192 -0.036263764462443726 -0.05549762842428274 130 127 121 0.46 68 0 69 0 70 0 71 0 72 0 73 0 74 0 
739 0.4349960947377467 -0.3234974622057911 -0.1037479216569146 127 126 133 0.53 68 0 69 0 71 0 
740 0.417097077431831 -0.351481903051735 -0.1140656206086681 133 136 145 0.64 68 0 69 0 70 0 71 0 
741 0.35737958224780475 0.0459876027781182 -0.09724624393652537 89 93 97 1.34 68 0 70 0 71 0 72 0 73 0 74 0 
742 0.4250317394647889 -0.32905296912019877 -0.12175435979927718 120 114 118 0.32 68 0 69 0 70 0 71 0 72 0 
743 0.0032806966789875602 0.2286519777697581 -0.19739259833147105 74 84 89 0.79 68 0 70 0 71 0 
744 0.48238398869250454 -0.2194522517686316 -0.09778481397062122 164 163 160 0.76 68 0 69 0 70 0 71 0 72 0 
745 0.15115677312050346 0.16481163719526515 -0.16575762942172156 106 112 115 1.07 68 0 69 0 70 0 71 0 72 0 73 0 
746 0.057659298646481894 0.22320023343196882 -0.19735524840225027 102 108 108 0.88 68 0 70 0 71 0 72 0 
747 -0.3314166715980076 -1.7287463789780555 -0.5530087218927245 74 49 57 1.07 68 0 69 0 70 0 
748 0.40027199296486793 0.01613884124669407 -0.11177309816772718 104 97 98 0.85 68 0 70 0 71 0 72 0 73 0 74 0 
749 0.5655780884106558 -0.07311296652801391 -0.07206365093010847 146 143 146 0.38 68 0 69 0 70 0 71 0 72 0 73 0 
750 0.43763266421056746 0.001713361502452715 -0.10836271107645601 102 99 100 0.74 68 0 69 0 70 0 71 0 73 0 74 0 
751 0.4730516734751553 -0.01911824929054906 -0.10057033036743146 97 97 101 0.61 68 0 69 0 71 0 72 0 73 0 
752 0.1664310898067083 0.11497140501395842 -0.19021711939083064 101 115 120 0.8 68 0 69 0 70 0 71 0 72 0 73 0 74 0 
753 0.4145846576497998 0.019100271910435396 -0.12421349690864769 73 68 71 0.65 68 0 69 0 70 0 71 0 72 0 73 0 74 0 
754 0.3875822006634444 0.03548460819501531 -0.13316137405435313 97 89 91 0.74 68 0 69 0 70 0 71 0 72 0 73 0 74 0 
755 0.4863418279739753 -0.02089473606454273 -0.1133871603079788 98 104 111 0.43 68 0 69 0 70 0 71 0 72 0 73 0 74 0 
756 0.45088777086893095 -7.531451273579126e-05 -0.12443913821529384 104 104 102 0.72 68 0 70 0 71 0 72 0 73 0 74 0 
757 0.48793036767838704 -0.2663551500256933 -0.16962946424825653 115 117 122 0.43 68 0 69 0 70 0 
758 0.5789557706185884 -0.06714791794906105 -0.11391254225940606 83 77 83 1.15 68 0 69 0 70 0 71 0 72 0 73 0 
759 0.4536213374240503 0.012657776431551304 -0.15400893464057486 93 95 95 0.37 68 0 69 0 70 0 71 0 72 0 73 0 74 0 
760 0.39580620758219953 0.04342870108237462 -0.17304159920505202 100 101 103 1.09 68 0 69 0 70 0 71 0 72 0 73 0 74 0 
761 0.18242820950044547 0.11093467014481961 -0.26110836995913234 103 121 133 0.27 68 0 69 0 70 0 71 0 
762 0.5675828691994573 -0.32808427040813093 -0.16612352526309548 46 50 45 0.72 68 0 69 0 70 0 
763 0.40834308632824334 0.040940952523927154 -0.18505185029300963 125 125 125 0.74 68 0 70 0 71 0 72 0 73 0 74 0 
764 0.4987665884439221 -0.2386846366569041 -0.18717836863755277 124 121 121 0.51 68 0 69 0 70 0 
765 0.513136195782965 -0.2193842918507245 -0.18072113872109918 161 163 163 0.47 68 0 69 0 70 0 71 0 
766 0.5411487596098217 -0.029975977565278034 -0.15589948305307866 97 94 95 1.66 68 0 69 0 70 0 71 0 72 0 73 0 74 0 
767 0.41289127902665634 0.045146103425306006 -0.20040561935793466 85 87 90 0.67 68 0 69 0 70 0 71 0 72 0 73 0 74 0 
768 0.5624684984805912 -0.04300731764750365 -0.15068940708055956 112 114 116 0.69 68 0 69 0 70 0 71 0 72 0 73 0 74 0 
769 0.19857925307570046 0.17134719695320466 -0.2765909140001157 23 37 29 0.75 68 0 69 0 70 0 
770 0.4175445230812278 0.5031517110966329 -0.14872540050832717 134 154 149 1.14 68 0 69 0 71 0 
771 0.4359059306962678 0.47886347957037667 -0.14832744066748305 63 71 57 0.62 68 0 69 0 71 0 
772 0.5048226282736221 -0.002710106076636243 -0.18077169382207603 85 88 89 0.73 68 0 69 0 70 0 71 0 72 0 73 0 74 0 
773 0.603315990677902 -0.05835255608008594 -0.14785543113773358 127 133 135 0.43 68 0 70 0 71 0 
774 0.5360187821596958 -0.1838226633127933 -0.1963965581621696 169 170 171 2.52 68 0 69 0 70 0 71 0 
775 0.5201369584593707 -0.2952152262171006 -0.2221344497265425 109 108 111 3.24 68 0 70 0 71 0 72 0 
776 0.5401962190726464 -0.017335090081768922 -0.18542595404593465 69 68 71 0.51 68 0 69 0 70 0 71 0 72 0 73 0 74 0 
777 0.5581266310287829 -0.02885188813357531 -0.17959649196565408 70 66 70 0.55 68 0 69 0 70 0 71 0 72 0 73 0 74 0 
778 0.23851818275580006 0.13040142289270296 -0.3092222374217659 36 47 50 2.16 68 0 69 0 70 0 72 0 
779 0.28532183057837623 0.10035228970353527 -0.2947971655428734 98 113 126 2.85 68 0 69 0 70 0 71 0 72 0 
780 0.6132707678421159 -0.0567447046345535 -0.17473555816117514 127 131 131 0.83 68 0 69 0 71 0 72 0 73 0 
781 0.5314136700844585 -0.006102499715844645 -0.20445626935777184 99 91 94 0.62 68 0 69 0 71 0 72 0 73 0 74 0 
782 0.5049404951004182 -0.27651200302269985 -0.2562099519393253 75 81 88 0.65 68 0 69 0 70 0 71 0 
783 0.5315892010853849 -0.2156526250195172 -0.2349701717854935 110 112 114 0.81 68 0 69 0 71 0 
784 0.535505173279262 -0.21785818477677965 -0.25209016011050545 109 111 114 0.45 68 0 70 0 71 0 
785 0.43120611716462887 0.05985336154364407 -0.2691333266176654 113 112 111 1.25 68 0 69 0 70 0 71 0 72 0 73 0 74 0 
786 0.5884210901618034 -0.0341283817493383 -0.2133626367825443 105 107 106 0.35 68 0 69 0 70 0 71 0 72 0 73 0 74 0 
787 0.5735425825501228 -0.025176582512214662 -0.21917045602098617 81 78 80 0.33 68 0 69 0 70 0 71 0 72 0 73 0 74 0 
788 0.511202477003027 0.020477153653214453 -0.24181662544164295 83 78 82 0.69 68 0 69 0 70 0 72 0 73 0 
789 0.4323707509763681 0.07573812485492604 -0.2804006088495625 132 137 134 0.97 68 0 69 0 70 0 71 0 72 0 73 0 74 0 
790 -0.18120685241828505 -1.708593896092598 -0.8592308496725944 61 44 49 0.61 68 0 69 0 70 0 
791 0.47891975019280264 0.04216391775931916 -0.2663592123354457 82 76 77 0.46 68 0 69 0 70 0 71 0 72 0 73 0 74 0 
792 0.6220004845697205 -0.0569894884752038 -0.22045793061825347 140 133 134 0.83 68 0 69 0 70 0 71 0 72 0 
793 0.4716442439068429 0.0527446698411248 -0.2820578419139319 85 89 90 1.18 68 0 70 0 71 0 72 0 73 0 74 0 
794 0.48808114603165165 0.03897348814503654 -0.27752179389297194 83 90 88 1.28 68 0 69 0 70 0 71 0 72 0 73 0 74 0 
795 0.560276018587434 0.39526599098627757 -0.19240892748476446 90 107 83 0.71 68 0 69 0 70 0 
796 0.5499909442794129 -0.001151502950298089 -0.25842068444762933 96 94 92 0.65 68 0 69 0 71 0 73 0 74 0 
797 0.5262013473568772 -0.26867981095121474 -0.3107331393933772 59 64 69 0.54 68 0 69 0 70 0 71 0 72 0 
798 0.5301032235058571 -0.24477267287110382 -0.30515840758280843 67 72 78 0.89 68 0 69 0 70 0 71 0 
799 0.4267735138205693 0.11056788258553862 -0.30874490167352286 21 20 15 2.63 68 0 70 0 71 0 72 0 73 0 
800 0.40590195349621694 0.19915332840299615 -0.3141253860187525 57 75 68 1.23 68 0 69 0 70 0 71 0 
801 0.5562483679975234 0.005793387760351654 -0.2692310166343468 93 96 97 0.65 68 0 70 0 71 0 72 0 73 0 74 0 
802 0.5308021444675843 -0.2777817268857593 -0.3264201255642587 72 78 85 0.63 68 0 69 0 70 0 71 0 72 0 
