# 3D point list with one line of data per point:
#   POINT3D_ID, X, Y, Z, R, G, B, ERROR, TRACK[] as (IMAGE_ID, POINT2D_IDX)
# Number of points: 469, mean track length: 4.46
1011 0.09855240218497185 0.7786585712681429 0.17697308618453678 105 95 98 0.56 22 0 23 0 24 0 25 0 26 0 27 0 28 0 32 0 
1012 1.458714948706975 0.6275123445785389 -0.02371668889476264 76 65 68 0.76 22 0 24 0 26 0 
1013 0.8171998758422194 0.72235619884776 0.12441886410046654 21 21 20 0.4 22 0 24 0 25 0 26 0 28 0 32 0 34 0 
1014 -0.2938751982308584 0.9150216883987636 0.34269697663705545 70 64 62 1.36 22 0 24 0 28 0 
1015 1.409192827038113 0.6754987826020777 0.013824544440165787 95 106 80 0.51 22 0 24 0 26 0 
1016 0.39290417891360085 0.7955422154868608 0.1685753007732148 65 47 46 0.49 22 0 23 0 24 0 25 0 26 0 27 0 28 0 
1017 1.16868596194104 0.7522087210065604 0.1609529317827968 78 101 66 1.09 22 0 23 0 24 0 26 0 34 0 
1018 0.46619235487167077 0.7954929808921336 0.16729124045119115 51 45 46 0.61 22 0 24 0 25 0 26 0 27 0 28 0 
1019 0.7086457338109018 0.7851258023699916 0.17760814367866573 123 110 110 0.37 22 0 23 0 24 0 25 0 26 0 28 0 32 0 
1020 1.1535176909171423 0.7562930147378706 0.15064563797074804 95 113 84 0.24 22 0 23 0 26 0 32 0 
1021 1.2250678160764117 0.7724799142390331 0.1808464285204222 62 82 52 0.68 22 0 23 0 24 0 26 0 
1022 0.672426834725508 0.8010758259710689 0.16946435498265477 69 56 55 0.49 22 0 24 0 25 0 26 0 
1023 0.6954336698416461 0.8041995862277906 0.16771312441253883 68 53 53 0.69 22 0 23 0 24 0 25 0 26 0 
1024 1.165848758544522 0.7817748449049196 0.16113742067355663 45 57 36 0.61 22 0 23 0 24 0 
1025 0.8604410346449847 0.802673643707293 0.16360230119357488 65 59 54 0.48 22 0 23 0 24 0 25 0 26 0 
1026 0.42561464541632543 0.8660016575880014 0.25512722331187543 93 63 59 1.34 22 0 24 0 26 0 
1027 1.2350142618978424 0.8024021964367354 0.1837999595562515 97 107 63 0.57 22 0 24 0 26 0 
1028 0.3505431629691885 0.9141357377930097 0.3286362325755029 103 55 50 0.97 22 0 23 0 24 0 25 0 26 0 27 0 28 0 
1029 1.127544331912931 0.8063633638768226 0.15917659803222428 118 110 103 0.2 22 0 23 0 24 0 26 0 
1030 1.2166437631375482 0.8092597841173639 0.16659912624190765 27 30 27 0.32 22 0 23 0 24 0 
1031 0.7896670550915796 0.8659651721590433 0.24276625113742079 95 74 72 0.52 22 0 23 0 24 0 
1032 1.2782816179020249 0.8176660801244979 0.18196821279742237 90 82 56 0.86 22 0 23 0 24 0 
1033 0.8913144945447435 0.8695739968421885 0.24874597157349887 109 73 71 0.46 22 0 23 0 26 0 
1034 1.2807073812382808 0.8270440126187588 0.14936650262452156 75 55 52 0.94 22 0 23 0 24 0 
1035 1.2079290807703997 0.8485507505748311 0.19192399047924347 58 25 23 0.25 22 0 23 0 24 0 
1036 0.811688706786011 -0.33587027151334914 0.9579073506521102 128 167 215 1.16 23 0 24 0 26 0 
1037 0.833897650088163 -0.3256059701315077 0.9426501314179209 146 156 187 0.14 23 0 24 0 26 0 
1038 0.969677261941915 0.1250208116491307 1.1147828918742775 24 20 27 0.27 23 0 24 0 26 0 
1039 0.9687449542889532 0.12131653760738842 1.0989392311527242 36 35 69 0.21 23 0 24 0 26 0 
1040 0.9899881531446266 0.1251438659144884 1.0883466467583376 101 155 179 0.36 23 0 24 0 26 0 
1041 0.7679078153594137 -0.6015245831019 0.7806439319518815 28 58 112 0.42 23 0 24 0 25 0 26 0 
1042 0.1454343178883155 -0.7756520358205259 0.7780625360462466 186 193 199 0.22 23 0 25 0 26 0 
1043 0.9850851013930753 0.11491705213099668 1.066422240020621 55 50 84 0.52 23 0 24 0 26 0 
1044 0.18913306215002268 -0.7241072175680572 0.7563125966198941 182 197 207 0.27 23 0 25 0 26 0 
1045 0.1718611234173908 -0.7208092683766818 0.7569377903565596 195 204 208 0.13 23 0 25 0 26 0 
1046 0.913996407247817 0.17458143103396778 1.0847400352226315 148 207 238 0.7 23 0 24 0 26 0 
1047 0.7012501371357638 -0.598132100547226 0.7221839248023351 72 69 65 0.48 22 0 23 0 24 0 25 0 26 0 
1048 0.20875605975113865 -0.686609071118599 0.7502592978652688 192 203 211 0.96 23 0 25 0 26 0 
1049 0.9220604067086244 0.1802932105081531 1.0783965552037986 112 166 203 0.97 23 0 24 0 26 0 
1050 0.9341109663397282 0.1727847074814292 1.063077952774616 163 223 252 0.22 23 0 24 0 26 0 
1051 0.9172366324150378 0.17459449459734494 1.0655832786400716 89 117 153 0.51 23 0 24 0 26 0 
1052 0.6816565672038952 -0.5991852263538616 0.6974643732161431 68 65 60 0.72 22 0 23 0 24 0 25 0 26 0 28 0 29 0 
1053 0.9311311028019928 0.17059267806029016 1.0489259069914239 181 222 251 0.44 23 0 24 0 26 0 
1054 0.9725434856338211 0.1596431788643175 1.0292837706888163 78 121 174 0.48 23 0 24 0 26 0 
1055 0.676401178814779 -0.5782721275155753 0.6809162965765384 126 122 119 0.54 23 0 24 0 25 0 28 0 
1056 0.9043622562393958 0.20418475937947939 1.0542317038497995 93 117 154 0.42 23 0 24 0 26 0 
1057 1.0019743946586157 0.22633407779175968 1.0440653627580025 97 120 152 0.47 23 0 24 0 26 0 
1058 0.9759451747301735 0.16292513017667604 1.0138694891051014 88 136 192 0.16 23 0 24 0 26 0 
1059 0.9904623579412959 0.21868514708234643 1.0320356730513631 108 134 167 0.42 23 0 24 0 26 0 
1060 0.3511887463040131 -0.5188449250271485 0.6620947113606218 75 121 143 1.3 23 0 25 0 27 0 
1061 0.3075410753969272 -0.5443944976285435 0.6479819227971696 74 109 137 0.47 23 0 25 0 27 0 
1062 1.5858010354653354 -0.9125168589729646 0.2550774878386194 38 78 119 0.43 23 0 24 0 28 0 
1063 0.2261931515932214 -0.49826932267229423 0.6740289482010101 63 120 148 0.24 23 0 25 0 26 0 
1064 0.1462746679878275 -0.48282819335032845 0.6820362457753509 105 118 131 0.54 23 0 25 0 26 0 
1065 0.682646991888846 -0.47962470514792044 0.6028665233376346 141 145 153 0.78 23 0 25 0 26 0 
1066 0.3900218887443112 -0.462951522474976 0.6174753186244984 165 172 179 0.46 23 0 25 0 26 0 27 0 
1067 0.3622458170486338 -0.4803634648557778 0.6072811188959374 175 181 190 1.23 22 0 23 0 25 0 26 0 27 0 
1068 0.33409770266628525 -0.5111216313073164 0.5885543355933273 195 198 203 1.06 23 0 25 0 26 0 27 0 
1069 0.5137191228871133 -0.4447941430560695 0.6017069542123087 200 213 219 0.96 23 0 24 0 25 0 26 0 27 0 29 0 
1070 0.028032331798453936 -0.4866508700662227 0.6308107232376826 188 193 198 1.0 23 0 25 0 26 0 
1071 -0.11691150675999978 -0.503693967700115 0.6211045116005615 186 192 197 0.15 23 0 25 0 26 0 
1072 0.02440391174746359 -0.4318921317260283 0.6375850689491952 191 197 202 0.6 23 0 25 0 26 0 
1073 -0.08503002939363086 -0.4682879843315984 0.6166270870953073 177 187 196 0.55 23 0 25 0 26 0 
1074 0.7027700135221264 -0.36307207517677587 0.5762666659983099 146 155 159 0.41 23 0 24 0 26 0 
1075 -0.39251192713941974 -0.5119066641940128 0.616046406643361 179 189 196 0.25 23 0 25 0 26 0 
1076 -0.4080096390054362 -0.49940875056420825 0.623635733129814 187 200 206 0.45 23 0 25 0 26 0 
1077 -0.15626613029143088 -0.4547293574394742 0.5972173789014118 182 189 198 0.67 23 0 25 0 26 0 
1078 0.6508767489944771 -0.35527675345103604 0.5553453275776882 86 78 77 1.02 23 0 24 0 25 0 26 0 27 0 
1079 -0.5559613181985743 -0.4708699259466757 0.6414582031879482 186 202 213 0.79 23 0 24 0 25 0 
1080 -0.4551260232070108 -0.44612058420850403 0.6304980198904547 177 193 200 0.85 23 0 25 0 26 0 
1081 1.0527064595671893 -0.8266449900984687 0.17367710770022982 98 79 65 0.42 23 0 24 0 25 0 27 0 28 0 
1082 0.5672196752441514 -0.35939186294594944 0.5475107980417157 75 68 69 0.46 23 0 25 0 26 0 27 0 32 0 
1083 0.13026018059946876 -0.40162074297898603 0.5733709085123876 130 137 142 0.86 23 0 24 0 26 0 27 0 
1084 0.5328761798988721 -0.34785455060055853 0.5580697101292477 67 64 67 0.9 23 0 25 0 32 0 
1085 0.6122706787970383 -0.348153618928998 0.5394256832216341 137 140 141 1.29 23 0 24 0 25 0 27 0 
1086 -0.0005686661915418889 -0.3855042970075453 0.5831088896191275 150 160 165 0.5 23 0 24 0 25 0 26 0 32 0 
1087 -0.02998271736934388 -0.3867278253738753 0.5823945442575565 96 87 86 0.6 22 0 23 0 24 0 25 0 26 0 32 0 
1088 -0.3603011597252127 -0.4659469164893268 0.5650410236080802 81 76 96 0.68 23 0 25 0 26 0 
1089 0.6572520357612761 -0.309999518821103 0.5358707218265059 137 122 116 0.44 23 0 26 0 27 0 
1090 0.7189385964383912 -0.41170789110213 0.44342938762275497 118 81 68 0.52 23 0 24 0 25 0 26 0 
1091 -0.3681966950674994 -0.39963351522029805 0.575552783006332 92 90 84 0.49 23 0 24 0 25 0 26 0 
1092 -0.008756533882569695 -0.3391301747029851 0.5636800892773154 67 61 63 0.54 23 0 25 0 26 0 
1093 -0.5337228745395574 -0.39224796065355994 0.5781563660397319 106 104 110 0.1 23 0 24 0 25 0 
1094 0.1330956240339225 -0.3758386573069313 0.49628934800299607 106 92 82 0.55 23 0 24 0 25 0 26 0 27 0 
1095 0.02070353570032879 -0.36909156604725857 0.5066853055486186 100 96 93 0.65 23 0 24 0 25 0 26 0 27 0 
1096 1.5716586693007788 -0.6808202315571918 0.09818496307647495 69 70 68 0.34 23 0 26 0 28 0 
1097 -0.3637217419290415 -0.39258450911968606 0.5329329023929771 86 82 76 0.71 22 0 23 0 24 0 25 0 
1098 0.42502954601911047 -0.7782961996416728 0.13562432524694612 31 18 13 0.7 23 0 24 0 25 0 26 0 
1099 0.16952391960354696 -0.404506745810943 0.443765661178133 38 24 17 0.7 23 0 24 0 25 0 26 0 27 0 
1100 -0.4055799665293983 -0.35583850347570645 0.5534371679147284 116 141 150 0.89 23 0 24 0 25 0 26 0 
1101 0.9142803302120843 -0.7960988040704289 0.046376833598117506 79 94 97 0.6 23 0 24 0 25 0 
1102 -0.5515926416742104 -0.37073461853206857 0.5370804037587645 71 60 57 0.37 23 0 24 0 25 0 
1103 -0.40835635759733424 -0.3760400023468713 0.4935201848274958 84 78 71 1.0 23 0 24 0 25 0 26 0 
1104 -0.9452503356124557 -0.8407883302121844 0.1666743134713381 43 35 29 0.35 23 0 24 0 25 0 28 0 29 0 
1105 1.2211994431036484 -0.6223126444205043 0.07152829518861392 141 132 123 0.44 23 0 24 0 25 0 
1106 -0.29839560502647844 -0.7865353748964197 0.1118301293713676 10 6 6 0.34 23 0 24 0 25 0 26 0 
1107 -0.2235960924932672 -0.7910783063087643 0.093761102370303 49 40 33 0.33 23 0 24 0 25 0 26 0 27 0 
1108 1.2758938312194814 -0.6027671863606606 0.05327881069413809 154 141 122 1.04 23 0 25 0 26 0 
1109 1.1479455101373761 -0.6044426735990902 0.06049038581093302 134 111 102 0.41 22 0 23 0 25 0 26 0 
1110 1.1886838063721892 -0.6099160988856218 0.048234706483102685 174 159 138 0.3 23 0 25 0 28 0 
1111 -1.741185737015827 -0.8635904973916138 0.18901660826200317 68 80 90 0.47 23 0 24 0 27 0 
1112 -0.9459641571773407 -0.7894778434437029 0.13348318098357315 27 20 15 0.21 23 0 24 0 28 0 
1113 -0.9403029787738315 -0.3909628486430937 0.4522968282931267 86 66 61 0.45 23 0 24 0 28 0 
1114 -1.7404731158805424 -0.8422300724370235 0.16131289634057133 120 107 102 0.93 23 0 24 0 25 0 27 0 34 0 
1115 -2.1177705364667645 -0.8941859119116362 0.16474159690722 66 68 72 0.3 23 0 25 0 29 0 
1116 1.2090826264433865 -0.5503519787158382 0.05662984692071327 163 144 130 0.37 23 0 25 0 26 0 
1117 -0.3010656672085539 -0.7138664866737277 0.07037518124554787 21 15 12 0.42 23 0 24 0 25 0 26 0 
1118 1.4308642006569179 -0.5792315667775876 -0.017585537092578707 75 63 60 0.34 23 0 24 0 25 0 26 0 
1119 1.3579323299772494 -0.5565477572721297 0.00396148314180611 114 79 74 0.61 23 0 24 0 25 0 26 0 
1120 1.661650911661977 -0.5173095738940885 0.00531464232203549 186 170 153 0.41 23 0 24 0 28 0 
1121 1.065143281598899 -0.5574455750909826 0.03163275426381873 164 151 137 0.14 23 0 24 0 27 0 
1122 1.0028632569993525 -0.597847695653257 -0.021225173209921122 159 168 178 0.39 23 0 24 0 26 0 
1123 1.2949513375789292 -0.5059243628763166 0.011903228009606304 135 120 110 0.59 23 0 24 0 25 0 26 0 
1124 0.9640628516695922 -0.5581830753597845 -0.017275183728375 90 112 120 0.26 23 0 24 0 26 0 
1125 0.4592600848449483 -0.5708792293139539 0.008967219956982131 23 17 11 0.56 23 0 24 0 25 0 26 0 27 0 28 0 
1126 0.41492582348467144 -0.5996198379760906 -0.01777569094010878 73 65 57 0.63 23 0 24 0 25 0 26 0 27 0 29 0 
1127 0.2901917036666295 -0.5969340219808497 -0.015599122504379337 70 61 52 0.65 23 0 24 0 25 0 26 0 27 0 
1128 -1.069596273925134 -0.6293107791121901 0.10532622492615051 29 23 25 0.75 23 0 24 0 25 0 26 0 28 0 29 0 
1129 -1.7288405198869743 -0.7037236086184702 0.07385786212669221 160 164 170 0.65 23 0 24 0 25 0 27 0 28 0 29 0 32 0 
1130 -0.22467087190776916 -0.59171362343946 -0.004468901876183762 68 59 51 0.24 23 0 24 0 25 0 26 0 27 0 28 0 
1131 -1.0684858122738872 -0.5902792307955036 0.0888321706059717 54 49 49 0.65 22 0 23 0 24 0 25 0 26 0 28 0 29 0 34 0 35 0 
1132 1.0120032391259937 -0.4567093425617961 -0.012476487471216657 57 60 60 0.62 23 0 25 0 26 0 
1133 0.2917604097572053 -0.5647827247871049 -0.04553016272964194 16 16 13 0.58 23 0 25 0 26 0 
1134 -0.9598752203482297 -0.23086382734014238 0.38116879463406017 91 97 99 1.45 23 0 24 0 25 0 26 0 28 0 
1135 0.19301947683474385 -0.505178601386636 -0.002947697476987865 47 23 15 0.53 23 0 25 0 26 0 32 0 
1136 0.41418744499997606 -0.5313108470993824 -0.054617302158205594 62 58 51 0.5 23 0 24 0 25 0 26 0 27 0 28 0 29 0 
1137 -0.9457947525195181 -0.5610184380391928 0.05823143108570383 37 28 22 0.43 23 0 24 0 25 0 26 0 27 0 
1138 0.2898673605733071 -0.5316666858961474 -0.05539688826325129 66 59 52 0.49 23 0 24 0 25 0 26 0 27 0 
1139 -1.7966688469038834 -0.6611737577148145 0.02663281859804323 145 171 187 0.79 22 0 23 0 24 0 25 0 27 0 28 0 29 0 
1140 1.1767114588222634 -0.4378591311741505 -0.06862943332421934 123 106 99 0.93 23 0 25 0 28 0 
1141 0.18224470112275692 -0.47092378559830256 -0.007305424848580766 50 38 32 0.23 23 0 24 0 25 0 
1142 0.1381891014866371 -0.10024737334148313 0.3459912310443575 47 39 33 0.55 23 0 24 0 26 0 
1143 -1.5601409171021778 -0.5853732227074148 0.046361226858206206 140 141 144 0.9 23 0 25 0 29 0 32 0 
1144 -1.634448291790748 -0.5929007366459358 0.03252844095156626 136 134 133 0.56 23 0 24 0 25 0 27 0 28 0 29 0 32 0 34 0 
1145 1.340161231834925 -0.38959123327456624 -0.06142581863639529 109 102 99 0.45 23 0 26 0 28 0 32 0 
1146 -0.3306393244412854 -0.5272810275784553 -0.03671767631915246 43 31 23 0.61 23 0 24 0 25 0 26 0 
1147 -1.068686052519779 -0.5144722171837035 0.049542492860259135 47 43 46 0.66 22 0 23 0 24 0 25 0 26 0 27 0 28 0 29 0 35 0 
1148 1.270945518912471 -0.39531617706665556 -0.06857902296828366 136 117 105 0.42 23 0 25 0 26 0 
1149 0.26158214126283685 -0.48836501202035426 -0.06865947460044552 61 59 52 0.76 22 0 23 0 24 0 25 0 26 0 27 0 32 0 
1150 -1.6678073253122325 -0.5718706119483103 0.03301330999916563 151 145 141 0.84 23 0 24 0 25 0 27 0 32 0 
1151 0.441660494555296 -0.46564286044379616 -0.08258568037879455 31 28 24 0.59 23 0 24 0 25 0 26 0 27 0 28 0 29 0 
1152 0.9803681885901316 -0.4040348171357179 -0.07699186690226156 118 111 98 1.11 23 0 24 0 26 0 
1153 -0.22694681026898267 -0.4919263835360217 -0.06672558959748687 59 54 49 0.35 23 0 24 0 27 0 28 0 
1154 0.4616082097108323 -0.4173548113208755 -0.06360148168064039 19 13 11 0.5 23 0 24 0 25 0 26 0 27 0 28 0 29 0 
1155 -1.626383262293276 -0.5254530615169556 0.00037615099313093037 94 92 99 0.98 23 0 24 0 25 0 27 0 28 0 29 0 32 0 34 0 
1156 -0.2838184308790209 -0.4677850821968011 -0.07620148684313421 30 30 27 0.5 23 0 24 0 25 0 26 0 27 0 28 0 29 0 
1157 1.0127517204926082 -0.3384601545165246 -0.07750476289541852 175 163 148 1.1 22 0 23 0 24 0 25 0 26 0 28 0 
1158 0.4791702355328884 -0.37818055830224206 -0.06615309240581435 74 60 48 0.52 23 0 24 0 25 0 26 0 27 0 28 0 29 0 
1159 0.4128530370508694 -0.38364863645385683 -0.07323167391424101 35 22 16 0.57 23 0 25 0 27 0 
1160 -0.949599340687191 -0.43782206950068914 -0.0053544721582865495 74 66 59 0.36 23 0 24 0 25 0 26 0 27 0 29 0 
1161 1.157126962681425 -0.3361997857336595 -0.09078999595930248 130 122 111 0.74 23 0 24 0 25 0 28 0 
1162 -1.6814394185348056 -0.5027574377627277 -0.024915299561872106 135 126 120 0.67 23 0 24 0 25 0 
1163 -1.0691369639611055 -0.41453175470134734 -0.003430292228095988 62 54 54 0.58 23 0 24 0 26 0 27 0 28 0 34 0 
1164 1.0442961509317994 -0.3209216755614246 -0.09480330591391806 160 147 134 0.48 23 0 24 0 25 0 26 0 27 0 28 0 
1165 0.405609934637567 -0.3424670957286239 -0.07394847533381865 110 90 70 0.7 23 0 25 0 27 0 
1166 -1.6371832569286524 -0.47403193003847094 -0.04355157594464376 119 104 104 0.2 23 0 24 0 27 0 28 0 
1167 -0.22767830771691083 -0.3837511903485427 -0.07227162771142093 31 24 19 1.08 23 0 24 0 25 0 26 0 27 0 28 0 29 0 32 0 
1168 -0.31339920131221466 -0.3774295671063256 -0.07541214350286696 53 42 37 0.6 23 0 24 0 25 0 26 0 27 0 28 0 29 0 
1169 -0.9495602041384523 -0.37834998482750204 -0.03723800110169828 57 48 41 0.08 23 0 25 0 27 0 
1170 1.0544927098535612 -0.2780185036736868 -0.1005105048695848 100 95 93 0.72 23 0 24 0 26 0 
1171 -1.0690131477303906 -0.37102837308022213 -0.02077722757292466 60 58 62 0.38 23 0 24 0 27 0 34 0 
1172 -1.6395931689383967 -0.4403737138891333 -0.05053388230870659 80 70 74 0.53 23 0 24 0 25 0 27 0 28 0 29 0 32 0 
1173 0.010433781491741234 0.021784598593743515 0.29859870667994326 115 117 123 0.65 23 0 26 0 27 0 
1174 -0.2410000555584935 -0.34347846397611803 -0.0870151693135156 54 41 35 0.36 23 0 24 0 25 0 26 0 27 0 28 0 
1175 -0.2096920711231749 -0.3274571791297779 -0.09388726589110696 52 40 32 0.62 23 0 24 0 25 0 26 0 27 0 28 0 29 0 
1176 -0.5679348270470987 -0.3379557463582913 -0.09251193059838614 60 50 45 0.37 23 0 24 0 34 0 
1177 -0.5270965119639619 0.02930206001526836 0.3151424559150483 123 120 125 0.64 23 0 25 0 26 0 
1178 -0.9476370856700267 -0.3343298269204704 -0.05749458278829267 63 54 46 0.55 23 0 26 0 29 0 
1179 -0.47316078348615487 -0.32503904285382573 -0.0960924087124797 43 32 31 0.35 23 0 24 0 34 0 
1180 1.6376700400139053 -0.20965630740370678 -0.14897690757416593 115 100 95 0.5 22 0 23 0 24 0 26 0 32 0 
1181 -0.404235898216718 -0.3069979408625676 -0.09331462139814484 52 45 43 0.51 23 0 24 0 25 0 26 0 
1182 -0.9943781528655236 -0.3130773326569559 -0.06385962871311768 55 44 43 0.19 23 0 25 0 27 0 
1183 -0.9532027786364063 -0.3170240397535482 -0.07486133442138032 32 29 28 0.28 23 0 24 0 25 0 28 0 
1184 -0.20677260506023934 -0.28785582252766007 -0.11400267133137654 70 56 43 0.49 23 0 24 0 25 0 26 0 27 0 28 0 29 0 32 0 
1185 -0.24418688336785005 -0.28024265675115456 -0.110305986315821 53 45 39 0.62 23 0 24 0 25 0 26 0 27 0 28 0 29 0 
1186 -1.0702910788915414 0.03849202593685416 0.30831209373420976 172 173 182 0.8 23 0 25 0 26 0 28 0 29 0 
1187 -0.9922553444758571 -0.2892891108393409 -0.0809369272523629 70 58 53 0.75 23 0 26 0 27 0 28 0 
1188 -0.3272792211129753 -0.275967672936964 -0.12227832208110334 50 36 27 0.07 23 0 25 0 29 0 
1189 -0.5271595436123258 -0.2849949629045749 -0.11993970071694326 90 82 78 0.31 23 0 25 0 32 0 
1190 -0.22793543440187172 -0.27151626991936323 -0.12574581654821493 56 38 31 0.33 23 0 24 0 25 0 27 0 28 0 
1191 -1.986838707717549 -0.3559852814282307 -0.10249075406244235 148 137 142 0.5 23 0 25 0 27 0 
1192 0.48742072314247475 -0.23290231445575743 -0.14189552510362813 103 81 66 0.5 23 0 24 0 25 0 26 0 27 0 28 0 29 0 
1193 0.4478646134039944 -0.23169210205459878 -0.14080685612984167 116 98 84 0.48 23 0 24 0 25 0 26 0 27 0 28 0 29 0 
1194 0.97887126470715 -0.20732482786054895 -0.15601231535250493 169 148 130 0.66 22 0 23 0 24 0 25 0 26 0 27 0 
1195 -0.9381615703209945 -0.2565689806658015 -0.07922079720617747 56 40 32 0.34 23 0 26 0 28 0 29 0 
1196 1.5537352835582723 -0.18137931134212895 -0.18259423284079157 20 15 12 0.83 23 0 24 0 26 0 28 0 
1197 1.0661403172119062 -0.19370116351961816 -0.1656846925164236 83 82 82 0.4 23 0 24 0 25 0 26 0 28 0 
1198 1.4170821445073254 -0.18327514843506276 -0.21629198961254914 52 41 37 0.35 23 0 24 0 26 0 28 0 
1199 -0.5240260430813831 -0.23656018528196726 -0.14615362814111366 87 77 68 0.28 23 0 25 0 32 0 
1200 -1.0862445744418214 -0.23699029257177917 -0.11548808100786456 37 36 42 0.27 23 0 25 0 26 0 
1201 1.0445059998569872 -0.16134839699670314 -0.17465420866072823 70 70 71 0.58 22 0 23 0 24 0 25 0 26 0 28 0 
1202 -1.6362074909628874 -0.2740684597584196 -0.13240399050894047 114 107 105 0.56 23 0 24 0 25 0 27 0 28 0 29 0 32 0 34 0 
1203 -1.9890519034793415 -0.2918929436954554 -0.14014251326870786 97 103 107 0.53 23 0 25 0 27 0 
1204 0.4236205331038446 -0.21278794384480815 -0.20198058210786163 55 37 33 0.82 23 0 24 0 27 0 
1205 0.9634325871018194 -0.18239068508685424 -0.21937086420449692 114 128 127 0.5 23 0 24 0 25 0 
1206 0.38369511893366637 -0.22063523091981435 -0.22093625245888981 16 10 7 0.17 23 0 24 0 25 0 
1207 0.9030729254326344 -0.20165464924887952 -0.23937422756995042 84 83 82 1.23 23 0 25 0 26 0 
1208 0.31983826811668714 -0.2104798265626103 -0.2117539074962772 17 10 9 0.92 22 0 23 0 24 0 25 0 
1209 0.9366770041287058 -0.18803053505551715 -0.22765732742320843 54 66 66 1.23 23 0 25 0 26 0 
1210 1.4852843268312481 -0.15810659592195303 -0.2370474968966676 121 112 113 0.41 23 0 26 0 28 0 
1211 -1.9917735332881998 -0.24849882303887985 -0.13570750712095048 103 105 112 0.77 23 0 25 0 27 0 29 0 
1212 0.3829068584498665 -0.1978510307789599 -0.22030584255020347 53 44 39 0.7 22 0 23 0 24 0 25 0 26 0 29 0 
1213 1.1162641111341103 -0.13100792972984227 -0.19385125541163462 127 104 88 0.79 23 0 24 0 26 0 
1214 0.31860643563161584 -0.19170456701245736 -0.21261369906742822 56 47 41 0.37 23 0 24 0 25 0 26 0 27 0 28 0 
1215 -0.2591128258823816 -0.18706838246757432 -0.17146655656100662 46 35 32 0.71 23 0 24 0 25 0 26 0 27 0 28 0 29 0 
1216 -0.32965292531169466 -0.18096069741929383 -0.16680173261725761 48 31 28 1.05 23 0 24 0 25 0 27 0 28 0 
1217 -2.0793825973538844 -0.24570679831305586 -0.15978752937824658 95 95 100 0.32 23 0 25 0 29 0 
1218 -0.9709656808251559 -0.17824282379760453 -0.14201006762777812 68 57 54 0.69 23 0 24 0 25 0 26 0 27 0 28 0 
1219 -0.28395238331663203 -0.1713693230584012 -0.19287581197767212 20 12 11 0.35 23 0 24 0 25 0 26 0 27 0 28 0 29 0 
1220 -1.0976168705221798 -0.18816937563766617 -0.17003204316129894 42 38 42 1.16 23 0 24 0 25 0 26 0 27 0 32 0 34 0 35 0 
1221 0.4602194994125435 -0.13946489633225184 -0.20318814610530234 21 11 11 0.42 23 0 25 0 26 0 
1222 -0.9704764993264856 0.13944691172354828 0.23086470838946405 131 127 124 0.56 22 0 23 0 25 0 26 0 
1223 -1.717314172475957 -0.19253445217615267 -0.16828345513561882 54 44 47 0.2 23 0 25 0 27 0 29 0 
1224 -0.25402435892169684 -0.1564665369906167 -0.2052852742369632 29 21 21 0.66 23 0 24 0 25 0 26 0 27 0 28 0 29 0 
1225 0.07506556399811293 0.21573289733853895 0.25593609312318544 152 155 159 0.38 23 0 25 0 26 0 
1226 -0.3437995613834594 -0.12716305088326715 -0.1613025110830275 80 72 69 1.21 23 0 24 0 26 0 34 0 
1227 -1.2493310168819325 -0.20684230790008357 -0.22156065632616173 53 45 43 0.18 23 0 24 0 34 0 
1228 0.15891288341674903 -0.1161513159056683 -0.1912759922756081 104 91 79 0.51 23 0 24 0 25 0 
1229 -0.30831175666374233 -0.14303891273994576 -0.20005529006925316 28 17 15 0.23 23 0 24 0 26 0 27 0 
1230 -0.9451626363322232 -0.1342050789028666 -0.15557853589252935 78 63 56 0.5 22 0 23 0 24 0 25 0 26 0 27 0 28 0 29 0 
1231 0.008333897331372797 0.19192108488633508 0.21255014636659963 120 118 120 0.53 23 0 24 0 25 0 
1232 -0.3546319006036257 -0.13656150472148182 -0.20197661941543033 83 73 65 0.38 23 0 24 0 28 0 
1233 -1.8005657720528097 -0.2053638390398059 -0.22473517769776274 60 56 56 0.49 23 0 25 0 27 0 29 0 
1234 -1.8657854205448607 -0.20992303594127598 -0.22689284864286297 54 48 47 0.52 23 0 25 0 27 0 29 0 
1235 1.4165441298110562 -0.0925964678725876 -0.2662892513059455 90 109 114 0.72 23 0 26 0 28 0 
1236 1.0133449719488825 -0.07517351334141864 -0.21655323261816928 73 79 78 0.31 23 0 25 0 26 0 
1237 -0.9438486930634111 -0.11650660092997943 -0.16810090426528845 80 63 48 0.57 23 0 25 0 27 0 28 0 29 0 
1238 -0.25663274859044327 -0.13397687054164265 -0.22628929464591918 31 21 20 0.51 23 0 24 0 25 0 26 0 27 0 
1239 -0.9192072547503436 -0.13574152350714475 -0.20137789724290567 60 39 33 0.66 23 0 24 0 25 0 26 0 28 0 29 0 
1240 -1.0708167557514665 0.18647543409535972 0.2344831122726555 165 172 180 0.44 23 0 25 0 29 0 
1241 -0.35321527153375837 -0.12055383469515292 -0.20678554198530885 66 56 51 0.53 23 0 24 0 26 0 28 0 34 0 
1242 -1.1574023533890674 -0.12242052908519159 -0.18936251960011852 85 74 74 0.78 23 0 26 0 35 0 
1243 0.9338546166283399 -0.09806342200872711 -0.26859969712689435 166 174 176 0.53 23 0 24 0 25 0 26 0 
1244 -0.2857195615621939 -0.11852905676451787 -0.23703358769939487 34 23 22 0.63 23 0 24 0 25 0 26 0 27 0 28 0 29 0 
1245 -0.3496167900965638 -0.103750052517909 -0.21378139023424658 89 82 75 0.76 23 0 24 0 25 0 26 0 27 0 28 0 29 0 35 0 
1246 -0.9691807252137388 -0.09741794955092174 -0.18357351620859863 99 96 90 0.85 23 0 24 0 25 0 26 0 28 0 29 0 
1247 1.567014779062718 -0.03792836104633793 -0.24518234357001878 69 67 65 0.44 23 0 24 0 26 0 28 0 
1248 0.13852488649118566 0.21240781609427156 0.18448479611408375 130 117 103 0.64 23 0 24 0 26 0 27 0 
1249 0.9780257575492921 -0.0938443056977033 -0.2892630509920838 78 92 91 0.7 23 0 25 0 26 0 
1250 1.154098432809491 -0.029672669705301025 -0.2341585216129255 107 78 73 0.53 23 0 24 0 25 0 26 0 28 0 
1251 -0.25738553879575243 -0.07729318783385895 -0.24499852326958416 29 20 19 0.43 23 0 24 0 25 0 26 0 27 0 28 0 29 0 
1252 -0.35316828678133166 -0.0738234699194552 -0.23312693356252856 65 54 48 0.38 23 0 26 0 28 0 29 0 
1253 -0.9458720043234724 -0.06430747530106942 -0.19945416493768053 57 45 43 0.82 22 0 23 0 24 0 25 0 26 0 27 0 28 0 
1254 -0.8941052419456496 -0.07735373165590521 -0.23259100292835877 44 42 43 0.65 23 0 24 0 25 0 26 0 27 0 28 0 29 0 32 0 
1255 -1.069684983488747 -0.04671456513100261 -0.19121154642028282 30 24 23 0.49 23 0 25 0 27 0 28 0 
1256 -1.1781993405324775 -0.0818333454305772 -0.25351341027685814 70 50 53 0.4 23 0 24 0 25 0 26 0 32 0 
1257 0.9794959065594051 -0.053377125413145404 -0.3171326188776681 79 91 90 0.39 23 0 26 0 27 0 
1258 -0.9486130249657376 -0.03523701991967351 -0.22249313296562778 83 64 49 0.58 23 0 24 0 25 0 26 0 27 0 29 0 
1259 0.7989387300167909 -0.03600582652065834 -0.29749232443221585 133 142 147 0.57 23 0 24 0 34 0 
1260 -0.0395016444301034 -0.024225131755850282 -0.24482501394872624 105 97 91 0.73 25 0 26 0 27 0 28 0 29 0 32 0 35 0 
1261 0.9012044651796789 -0.05179019720441602 -0.3390514148700635 101 121 123 0.63 23 0 24 0 25 0 34 0 
1262 0.876637640072921 -0.0548726962667824 -0.34210787744663296 194 199 197 0.98 23 0 24 0 25 0 34 0 
1263 -0.9890828453454272 -0.01448863881939172 -0.2222182872100552 115 107 101 0.65 23 0 24 0 25 0 26 0 27 0 28 0 29 0 
1264 -1.7413726611827518 -0.06881719656486196 -0.2757666860167194 122 118 118 0.6 23 0 25 0 27 0 29 0 
1265 -0.9383796020202104 -0.0022344889656103484 -0.2108805723781192 66 45 35 0.31 23 0 24 0 25 0 26 0 28 0 
1266 0.4248393996344366 -0.05984041507687668 -0.34474403981907387 60 71 73 1.21 23 0 26 0 27 0 28 0 
1267 -0.49753726858891756 -0.01006675780233185 -0.2628966189629195 84 71 63 0.29 23 0 24 0 25 0 
1268 -0.9402830333267642 0.011483897857833214 -0.23616166916140613 87 69 53 0.93 23 0 25 0 26 0 27 0 28 0 29 0 
1269 -2.129615350515542 -0.026338883658845985 -0.27536448460936047 98 64 63 0.48 23 0 25 0 29 0 
1270 0.17255800808806798 0.01737703153679332 -0.27336026855627193 120 107 94 0.59 23 0 24 0 25 0 32 0 34 0 
1271 -0.451245093278403 0.013294739533872668 -0.2709860459148328 86 72 61 0.92 23 0 26 0 35 0 
1272 0.27780901554056203 0.00012327156232416758 -0.3156868472274569 152 158 161 0.3 23 0 24 0 26 0 27 0 
1273 1.128277704498129 0.0681208248114219 -0.2678399361426268 104 71 61 1.27 23 0 25 0 26 0 28 0 
1274 -0.9772183544866088 0.043947666236015814 -0.24283742668309538 73 63 62 1.16 23 0 24 0 25 0 26 0 27 0 29 0 
1275 1.4175030819676253 0.02927559061028831 -0.3488832861384148 151 174 183 0.61 22 0 23 0 24 0 26 0 28 0 
1276 1.2349400174859557 0.06821210688569504 -0.2899336884868622 112 86 79 0.42 23 0 25 0 26 0 
1277 1.1984729626151482 0.06541383041719878 -0.2966408798407162 117 84 77 0.36 23 0 24 0 25 0 
1278 0.8692080445053518 0.021030575472772844 -0.36185862059061336 139 155 157 0.08 23 0 24 0 34 0 
1279 0.31762548347714403 0.021889824936250246 -0.35194386192697313 129 139 143 0.56 23 0 24 0 26 0 27 0 28 0 29 0 34 0 
1280 -1.321753024427767 -0.019295842412110742 -0.38545993187311334 109 124 130 1.13 23 0 25 0 32 0 
1281 0.46008603774824086 0.06688439418319958 -0.30110424494384036 37 33 32 0.58 23 0 24 0 25 0 26 0 27 0 28 0 29 0 
1282 -1.1780641605747029 0.04357819828373574 -0.30326252772638307 87 97 107 0.92 23 0 25 0 32 0 
1283 -1.9582446350802254 0.03111316414962631 -0.3159701916656167 90 78 71 0.36 23 0 25 0 27 0 29 0 
1284 -1.2523420761565396 0.01280401376090351 -0.35675416588986597 85 111 126 0.63 23 0 24 0 25 0 32 0 
1285 -0.4889604115989137 0.030293331932446738 -0.34445421493914674 99 84 72 0.78 23 0 24 0 26 0 
1286 -0.5775493738014497 0.06168703966245542 -0.29939616488046616 121 111 101 0.44 23 0 24 0 34 0 
1287 -1.665074285948149 0.04936280534387011 -0.30882225555903275 133 122 119 0.29 23 0 25 0 27 0 
1288 -0.8768666114235454 0.07080784558420347 -0.2992789731731017 86 79 74 0.89 23 0 24 0 25 0 26 0 28 0 29 0 32 0 
1289 -1.2504463745619065 0.0042442532100023245 -0.4055625145639815 114 115 121 1.3 23 0 24 0 34 0 
1290 -0.3120050453507966 0.07147229490374468 -0.31550408214202286 65 53 48 0.63 23 0 24 0 26 0 28 0 
1291 0.6793905538714788 0.3790855613208361 0.13783306487035063 179 169 157 0.98 23 0 24 0 34 0 
1292 -0.20981413227472484 0.07652817118956828 -0.3237504020265709 46 35 34 0.72 23 0 24 0 25 0 26 0 27 0 28 0 29 0 
1293 -0.2607435217084275 0.07229487732059178 -0.3300307982910826 49 34 34 0.4 23 0 24 0 25 0 26 0 27 0 28 0 29 0 
1294 -0.97328712326238 0.10255183680219038 -0.2859926749671877 75 59 57 0.44 23 0 24 0 25 0 26 0 27 0 28 0 29 0 
1295 -0.3569416593012623 0.09055172398313077 -0.31273448251799296 101 94 90 0.66 23 0 24 0 25 0 26 0 27 0 28 0 29 0 34 0 35 0 
1296 -0.31227838027176874 0.08715784868553689 -0.3299120594014865 61 38 33 0.88 23 0 24 0 25 0 26 0 27 0 28 0 29 0 
1297 0.9313467966511146 0.0882439842233578 -0.37940425867085725 167 176 181 0.72 22 0 23 0 24 0 25 0 26 0 
1298 -1.1831048029447875 0.08916343870557841 -0.3427838934224573 125 128 137 0.54 23 0 26 0 32 0 
1299 -0.38296066491445796 0.10860804535586122 -0.3192489140067928 106 95 87 0.83 23 0 24 0 26 0 27 0 28 0 35 0 
1300 1.5636599770387682 0.13707617245387932 -0.3353239148269903 43 60 61 0.52 23 0 24 0 26 0 28 0 32 0 34 0 
1301 0.38224686475500913 0.08283674948118308 -0.37939764800903486 127 132 136 0.46 23 0 24 0 25 0 26 0 27 0 28 0 35 0 
1302 -1.0746549457099124 0.3937891590987072 0.1298974101721141 119 108 112 0.56 23 0 25 0 26 0 
1303 0.4500082504368662 0.06782773051553631 -0.405950351292535 51 55 60 1.32 23 0 24 0 25 0 26 0 28 0 29 0 
1304 1.278598381969585 0.13449410397419104 -0.33980125322596144 134 121 107 0.34 23 0 25 0 32 0 
1305 -1.0751343908595787 0.14152710356180992 -0.2932074232876615 37 31 33 1.28 23 0 25 0 28 0 
1306 -1.248758743792048 0.07926343176987455 -0.3967342381619715 94 108 112 1.5 23 0 26 0 35 0 
1307 -1.016242119020482 0.1532929144926521 -0.319859846957529 76 54 52 0.62 23 0 24 0 25 0 26 0 27 0 28 0 29 0 
1308 -0.33966951819971675 0.10751275302409624 -0.4050230445171584 68 48 44 1.08 23 0 26 0 28 0 
1309 -0.40697113870210366 0.3898412332988885 0.07418074708004319 113 114 109 0.74 23 0 26 0 27 0 28 0 
1310 -0.9310510855195057 0.1587998779859398 -0.3433871640032372 60 51 44 0.73 23 0 24 0 25 0 26 0 27 0 28 0 29 0 32 0 
1311 0.5665300271200044 0.4357254555242733 0.1321691180367418 135 140 146 0.82 23 0 24 0 25 0 26 0 27 0 28 0 32 0 34 0 
1312 -0.46103110392709046 0.15273986746158913 -0.3453256271088321 97 89 85 0.39 23 0 24 0 34 0 
1313 -0.3522760089957793 0.3704621319089844 0.022824831100769494 62 47 42 0.74 23 0 24 0 25 0 26 0 27 0 
1314 -1.1786895858531719 0.14913427262685636 -0.36724554569093126 98 99 106 0.56 23 0 26 0 32 0 
1315 0.5857877341296578 0.44821615169559587 0.134781120206246 123 127 132 0.54 23 0 25 0 26 0 28 0 
1316 -0.43163580029319143 0.14620152325626362 -0.3883906512630372 129 119 106 0.28 23 0 24 0 25 0 32 0 
1317 -0.35253629437610323 0.16804266869301626 -0.36336537299166527 150 147 142 0.58 23 0 24 0 25 0 26 0 27 0 
1318 -0.27705565787443975 0.17164138390502293 -0.36579699899371954 25 22 23 0.59 23 0 24 0 25 0 26 0 27 0 28 0 29 0 
1319 -0.3120607593258394 0.170418509340248 -0.3648666129525192 105 81 69 0.41 23 0 24 0 26 0 
1320 0.7542019142068723 0.34114758446174814 -0.08155092976708411 39 34 35 0.63 23 0 24 0 25 0 
1321 -0.34768367223681734 0.4057417383756236 0.03954143661749743 19 18 20 0.31 23 0 24 0 25 0 
1322 -0.9026732385075431 0.47697321299601986 0.1440781900335789 51 59 78 0.41 23 0 24 0 26 0 
1323 0.7659913047391897 0.36732373710499483 -0.045592639163970494 55 57 64 0.57 23 0 24 0 25 0 26 0 27 0 
1324 0.5705134094461142 0.46252699916550716 0.12047714441493473 129 132 138 0.45 23 0 24 0 25 0 26 0 28 0 32 0 
1325 -1.0404123887969914 0.2400821646568565 -0.3069127091355581 65 57 58 1.2 23 0 24 0 25 0 26 0 27 0 
1326 0.7889056370096039 0.375333833424152 -0.0564907215726832 31 32 32 0.42 23 0 24 0 25 0 26 0 27 0 
1327 -0.9033760750208025 0.5281091059291521 0.18467416715358087 56 69 92 0.31 22 0 23 0 24 0 25 0 26 0 
1328 0.5713286778273654 0.4815476995444657 0.11287676393336021 131 136 142 0.56 23 0 24 0 25 0 26 0 27 0 
1329 0.472118518343577 0.21015077080212763 -0.37584272748008296 113 103 87 0.5 23 0 24 0 25 0 26 0 27 0 28 0 29 0 
1330 -0.9108853637489388 0.5614664382905674 0.20172155154558313 61 76 95 0.81 23 0 24 0 25 0 26 0 28 0 29 0 
1331 0.8471098259961649 0.40320005548315624 -0.05749498062746661 18 15 17 0.41 23 0 24 0 25 0 26 0 
1332 -0.28704800099549893 0.2192753154320603 -0.3953131683471729 60 42 38 0.33 23 0 24 0 28 0 
1333 0.23353596911804375 0.23910057179148958 -0.3809578535642668 113 93 78 0.12 23 0 24 0 25 0 
1334 -0.49987856932416996 0.5041243355789709 0.08012822199563263 127 123 126 1.26 23 0 25 0 26 0 28 0 32 0 
1335 -1.0247705598284211 0.2568302668040891 -0.3954911749282659 100 92 87 0.45 23 0 25 0 26 0 
1336 -0.5408725627382911 0.49376964698374676 0.057913211396137254 115 113 114 0.82 23 0 24 0 25 0 26 0 27 0 29 0 32 0 
1337 -1.0888890518837762 0.5081453616952374 0.05936420765809125 138 144 148 1.35 23 0 25 0 26 0 27 0 29 0 32 0 
1338 0.7189311639958522 0.45764245871239656 0.0005945791552134372 82 65 54 0.64 23 0 24 0 25 0 
1339 0.19764791709724538 0.45809643980901354 0.003978306428987444 53 52 57 0.41 23 0 24 0 25 0 
1340 -1.0552377969156108 0.27346909169752004 -0.40354060253514223 100 92 84 0.84 23 0 25 0 26 0 
1341 -0.9261393889821873 0.538765162869445 0.09742046081249411 45 36 34 0.82 23 0 24 0 25 0 26 0 
1342 0.5567390292600591 0.5447199443643862 0.14958157121049676 104 102 103 1.03 23 0 24 0 25 0 
1343 -0.5543382082156365 0.5113652478819752 0.0588247147618034 131 128 128 0.91 23 0 24 0 27 0 28 0 
1344 -0.3608821425730485 0.616691390508775 0.25314213653471074 55 60 68 0.49 23 0 24 0 26 0 
1345 0.6807009536473683 0.5066347988758777 0.059664749409131024 150 151 144 0.67 23 0 25 0 26 0 
1346 0.13755566765608074 0.526217482637581 0.07505036348177019 132 130 129 1.53 23 0 25 0 26 0 27 0 29 0 
1347 -0.9059746565743305 0.5719666960945593 0.108925704720649 78 83 88 0.81 22 0 23 0 24 0 25 0 26 0 
1348 -0.9058312227944785 0.5629818607267782 0.08918994271445901 45 52 55 0.7 23 0 24 0 25 0 26 0 
1349 -0.9321121348421935 0.5783247097964113 0.11623297114873588 76 83 86 0.78 23 0 24 0 25 0 26 0 
1350 -0.2617667344285843 0.2810871717092673 -0.4493744471819665 64 51 49 0.42 23 0 25 0 26 0 27 0 28 0 29 0 
1351 -0.3508032368487473 0.4987484181186657 -0.02056953481321 28 22 23 0.43 23 0 24 0 26 0 
1352 -0.36024777999829427 0.6529046204657392 0.28022503894916595 53 54 58 1.26 23 0 24 0 25 0 26 0 
1353 -0.3135462192896169 0.29166738452463925 -0.42981928955512794 123 108 97 0.89 23 0 24 0 25 0 28 0 29 0 
1354 -1.3001206339561504 0.5481971699129233 0.012416972705820761 95 90 96 0.71 23 0 25 0 27 0 28 0 
1355 0.32447200611817506 0.2962912725859958 -0.4211444885508332 101 77 63 0.65 23 0 24 0 25 0 26 0 
1356 0.8588026295470348 0.5677428083493026 0.10877968781021619 33 43 33 1.0 23 0 25 0 26 0 
1357 0.36802092939079534 0.30425425144165397 -0.4286510124895331 84 58 47 0.23 23 0 24 0 26 0 
1358 -0.34920403100595554 0.6634775515979237 0.24480096823852582 46 36 33 1.33 23 0 24 0 25 0 
1359 -0.33967948944839294 0.6604907601476839 0.23822450883228796 55 44 40 0.62 23 0 24 0 25 0 
1360 -1.2894514931271868 0.5704534751529031 -0.02854590407843116 23 25 26 1.01 23 0 25 0 27 0 28 0 29 0 
1361 -0.05414352401531303 0.7151713211474686 0.3447281812840134 39 44 48 0.41 23 0 24 0 25 0 26 0 
1362 -0.8997833031465673 0.5914531259070173 0.03875578514950673 64 56 55 0.76 23 0 24 0 25 0 26 0 27 0 28 0 29 0 
1363 -0.6784101022662207 0.6166088772213603 0.0901024824011617 22 22 27 0.76 23 0 24 0 25 0 
1364 0.2488442798332261 0.34211125304639 -0.44767923468774773 119 98 85 0.51 23 0 24 0 25 0 
1365 0.7186542200040942 0.6087212801714679 0.10705134942208361 98 88 88 0.83 23 0 24 0 25 0 26 0 28 0 32 0 34 0 
1366 -0.9359060362105751 0.6681176579067722 0.13677713817536452 41 44 49 1.47 23 0 25 0 26 0 
1367 -0.9005537725266457 0.6400512960851648 0.057432067461666514 65 54 53 0.63 23 0 24 0 26 0 27 0 
1368 0.40403443070357725 0.5948079959256776 0.02104483093189924 63 48 50 0.35 23 0 24 0 25 0 26 0 27 0 28 0 29 0 
1369 -0.9376635412853611 0.7321749327377591 0.1957838813821816 19 21 25 1.2 23 0 25 0 26 0 
1370 -1.2232910893852518 0.7088287797471178 0.12006543008219739 63 65 68 0.41 23 0 25 0 27 0 29 0 32 0 
1371 0.31569152923287136 0.6082386553536745 0.01510344237262562 59 52 54 0.32 23 0 24 0 25 0 26 0 27 0 
1372 0.7183673942474051 0.6386692816981876 0.09055403331155987 64 52 52 0.42 22 0 23 0 24 0 25 0 26 0 28 0 
1373 -0.8147820480806462 0.7065663821717969 0.12205835233990314 120 109 113 0.85 23 0 24 0 25 0 27 0 29 0 32 0 
1374 0.6986627301940329 0.6484234054171112 0.07920589243582798 74 64 67 0.72 22 0 23 0 24 0 25 0 26 0 28 0 
1375 0.9101617203164343 0.7045164138511593 0.18746333742614907 17 28 23 0.34 23 0 24 0 25 0 28 0 32 0 
1376 -0.9041300702508845 0.807080820469462 0.28603996070140936 22 27 36 0.4 23 0 25 0 28 0 29 0 32 0 
1377 -0.14329442139413498 0.6776118063393666 0.04311098816915748 104 97 98 0.87 24 0 25 0 26 0 27 0 29 0 
1378 -0.8223837676401384 0.7413857450326669 0.10610861028492502 115 108 114 0.9 23 0 24 0 25 0 26 0 27 0 28 0 29 0 32 0 
1379 0.7197871046459818 0.6799327865958233 0.06618807722599829 45 35 36 0.25 23 0 24 0 25 0 26 0 
1380 1.3993668201141143 0.6401321939430322 -0.011684007128372031 41 52 25 0.44 23 0 24 0 26 0 
1381 0.8175923159863889 0.6475685720550408 -0.01957418110757503 16 14 15 0.64 23 0 24 0 25 0 26 0 28 0 
1382 0.40423440134955935 0.7177322666418675 0.12852113128885778 119 109 110 0.46 23 0 24 0 25 0 26 0 27 0 28 0 29 0 
1383 -1.041692924923777 0.8102211938479515 0.18428886428839963 22 21 21 1.04 23 0 25 0 27 0 
1384 1.1171943471754642 0.7052509737638886 0.10740039082390418 38 42 38 0.35 23 0 24 0 26 0 
1385 0.8555740950549655 0.7096758990949807 0.11316554050973193 18 21 18 0.2 23 0 24 0 25 0 
1386 -0.901850374154704 0.8188276325915269 0.21259118406512745 25 25 30 0.44 23 0 25 0 26 0 27 0 28 0 29 0 
1387 1.3888007988929407 0.6661084431812843 0.020939934248547565 114 143 127 0.35 23 0 24 0 26 0 
1388 -0.2064224422626786 0.7447727766427084 0.10954648505753817 103 98 101 0.31 23 0 24 0 25 0 26 0 27 0 28 0 
1389 -0.35619483917707195 0.8059591290049297 0.22738384282143176 31 28 34 0.49 23 0 24 0 25 0 26 0 
1390 -0.1445021750761328 0.7785629488580521 0.17511279832984716 107 90 91 0.54 23 0 24 0 25 0 26 0 27 0 28 0 29 0 
1391 0.40318705757574536 0.7367983589986755 0.11935150259716021 61 47 47 0.42 23 0 24 0 25 0 26 0 27 0 28 0 
1392 -0.0213987288772457 0.7799282087477277 0.1757615277586767 83 63 63 0.57 22 0 23 0 25 0 26 0 27 0 
1393 0.22082399177288603 0.7822817270977143 0.17518033028271607 82 58 55 0.34 23 0 24 0 25 0 
1394 -0.21290364127497458 0.811389752646577 0.17157053052403504 17 20 19 0.37 23 0 24 0 25 0 26 0 
1395 0.17496730457294285 0.7962827040652602 0.17351524959948283 61 49 49 0.71 23 0 25 0 26 0 27 0 28 0 
1396 -0.14390425299674042 0.8075469930947499 0.16160223334851131 20 17 16 0.6 23 0 24 0 25 0 26 0 27 0 28 0 29 0 
1397 -0.7184055732928631 0.8939908792266478 0.3110901937495455 100 79 77 0.52 23 0 25 0 27 0 28 0 29 0 
1398 0.5867593912715969 0.7821918919363364 0.17141110306833507 120 103 102 0.38 23 0 24 0 25 0 26 0 
1399 0.8137968826521862 0.7872418669925016 0.1760221001983312 62 56 53 0.52 23 0 24 0 25 0 26 0 28 0 32 0 34 0 
1400 0.4212953912382179 0.7977226683464984 0.17361507842587331 59 45 45 1.01 23 0 26 0 28 0 
1401 1.1743746246876765 0.7781734591786562 0.1627060622879074 92 112 73 1.07 23 0 26 0 32 0 
1402 0.9814906950418285 0.7652231547472461 0.11411352533626007 13 17 12 1.14 23 0 24 0 26 0 
1403 -0.6083493021237747 0.931045516693759 0.375601965446264 80 71 72 1.05 23 0 25 0 26 0 27 0 28 0 
1404 1.1843878917131108 0.7862524046838404 0.16990097980731866 74 88 51 0.4 23 0 24 0 26 0 
1405 1.1538946217615558 0.7794732681162189 0.14610819662194185 38 56 37 0.09 23 0 26 0 32 0 
1406 -0.3361609974381202 0.9254931163650397 0.3596634154058732 98 78 77 0.55 23 0 26 0 27 0 
1407 0.9749530206748767 0.8014296159881726 0.15109664535771394 88 86 79 1.18 23 0 24 0 26 0 28 0 
1408 -0.012114600731970848 0.8883329753699787 0.2937027303751262 103 75 70 0.74 23 0 24 0 25 0 26 0 28 0 
1409 0.6712634750076454 0.8160964840492657 0.16585437639947764 59 50 43 0.84 23 0 24 0 25 0 28 0 
1410 0.740453815149166 0.8199947530520111 0.17285392459677074 17 15 15 0.9 23 0 25 0 26 0 
1411 0.45059696447009734 0.8644118807776728 0.24758636016167912 87 53 49 0.43 23 0 24 0 25 0 
1412 0.3686624640877688 0.8710593031900544 0.26058371197827734 98 75 72 0.56 23 0 24 0 25 0 26 0 
1413 0.35097517566136816 0.8747327869778638 0.2649161554911358 87 80 79 0.37 23 0 24 0 25 0 26 0 27 0 
1414 -0.13265753829606194 0.9556536112387763 0.4116763314403934 108 71 66 0.94 23 0 24 0 25 0 26 0 29 0 32 0 
1415 0.5690728309173023 0.8533053158242772 0.2212035480949247 94 66 64 0.74 23 0 24 0 25 0 26 0 
1416 0.5498359819428509 0.8625613551160047 0.23865766925399778 79 73 71 0.42 23 0 24 0 25 0 
1417 0.2278484652627779 0.9026861324072768 0.3133569080403483 114 76 70 0.35 23 0 24 0 25 0 27 0 
1418 0.028738794143327973 0.931129595852719 0.36409728332024816 102 73 70 0.65 23 0 24 0 25 0 26 0 27 0 
1419 0.046233868468993355 0.9334194376633935 0.3699328924843154 100 68 64 0.83 23 0 24 0 25 0 26 0 27 0 28 0 29 0 
1420 0.391936759128688 0.8938731760533813 0.29769805383372183 101 63 58 0.45 23 0 25 0 27 0 
1421 0.6895837591811513 0.86855954342999 0.25122678173041046 102 73 70 0.36 23 0 25 0 26 0 
1422 0.5090554508569913 0.8775624112679674 0.26463126660875125 113 73 64 0.66 23 0 24 0 25 0 
1423 0.3079803574669502 0.9050718018634041 0.3173402017472996 96 57 55 0.64 23 0 25 0 26 0 27 0 28 0 
1424 0.21017288112088406 0.9217679311077884 0.34190500433845006 88 80 81 0.38 23 0 24 0 25 0 
1425 0.08790827483165364 0.9399742761726633 0.37383596400127306 103 67 62 0.34 23 0 24 0 25 0 
1426 0.7709239393537881 0.868379080760995 0.2461803983667149 103 82 79 0.34 23 0 24 0 25 0 28 0 
1427 0.5509034091322877 0.8972547651248122 0.29665589149865046 99 74 74 0.67 23 0 24 0 26 0 28 0 
1428 0.36855501323830975 0.9121407477966366 0.3231489007589209 104 67 62 1.06 23 0 24 0 25 0 26 0 27 0 
1429 0.6099960302733537 0.8933655825450113 0.2873699478345374 90 79 78 0.41 23 0 24 0 25 0 
1430 0.6927872073856876 0.8918332424772941 0.2817492339685451 123 85 82 0.44 23 0 24 0 25 0 
1431 0.7178178796989174 -0.6009793826422811 0.7315515335267501 68 56 53 0.26 24 0 25 0 26 0 
1432 -0.03476995644679265 0.8032343041269348 1.4185532756506913 123 150 144 0.69 24 0 25 0 26 0 
1433 -0.029984018231613452 0.8072777543128025 1.412309641966559 169 200 209 0.56 24 0 25 0 26 0 
1434 -0.04896535689933201 0.8043023888159775 1.4101949324942664 156 169 169 0.89 24 0 25 0 26 0 
1435 -0.0412064859207506 0.8137028039996053 1.410698314540216 109 87 95 0.65 24 0 25 0 26 0 
1436 -0.024525272363940753 0.8182420215823312 1.4075388405634692 72 68 62 0.68 24 0 25 0 26 0 
1437 3.023810311697125 -2.9482164836821845 -0.7314912274741375 214 249 253 0.51 24 0 26 0 28 0 
1438 -0.0242797293079125 0.8236626043685911 1.4030369046523696 150 135 122 0.47 24 0 25 0 26 0 
1439 3.0562257651845766 -3.1470056551812773 -0.9286097235962493 214 244 253 0.89 24 0 26 0 28 0 
1440 -0.06151187605618014 0.8175896445700999 1.3865605089370283 124 104 111 0.37 24 0 25 0 26 0 
1441 2.999255669057451 -2.9519611019781036 -0.8675945401967561 154 180 206 0.46 24 0 26 0 28 0 
1442 -0.002160464399264206 -0.4241571795305019 0.6088100341454977 186 203 212 0.71 24 0 25 0 26 0 
1443 3.055567478793076 -3.074189402927372 -1.0155416022261514 181 200 203 0.58 24 0 26 0 28 0 
1444 0.5234289780722993 -0.4145995226130485 0.5929785522683267 86 83 87 1.1 24 0 25 0 26 0 
1445 3.021302458400953 -3.001126005494122 -1.023785764705062 190 216 239 0.17 24 0 26 0 28 0 
1446 3.041935674736693 -2.960375525713424 -1.057240149174472 46 77 112 1.14 24 0 26 0 28 0 
1447 0.5773138936317532 -0.35249136542009496 0.560525665825108 63 54 49 0.3 24 0 26 0 27 0 
1448 -0.9749162001594636 -0.3616276685419675 0.5698777136648786 106 111 115 1.0 24 0 27 0 28 0 34 0 
1449 0.10463361242340247 -0.3644673234731315 0.5396190711665808 86 77 69 0.46 24 0 25 0 27 0 
1450 0.6456885542869084 -0.34888307579788125 0.5407741281593866 135 133 130 0.52 24 0 25 0 27 0 
1451 0.08373756211297773 -0.39194629765340827 0.5084048301869181 158 153 146 1.09 24 0 25 0 26 0 
1452 -0.9199704470183225 -0.8506923779344095 0.20616085195103528 55 40 34 0.47 24 0 25 0 28 0 29 0 
1453 -0.9144238126904897 -0.4728228625210962 0.44361401162716263 69 57 51 0.39 24 0 25 0 28 0 
1454 -1.0612481707818326 -0.36257151320223896 0.5175449252329637 110 101 106 1.31 24 0 27 0 28 0 
1455 1.3111184133603428 -0.8218873216986391 0.17872899780484264 119 98 84 0.31 24 0 28 0 34 0 
1456 -0.017359625559666525 -0.41181062744923314 0.43767220197174816 45 31 25 0.83 24 0 25 0 26 0 28 0 32 0 
1457 -1.5922125140485837 -0.8195638518768631 0.14901656404473773 114 98 92 0.76 24 0 26 0 27 0 28 0 
1458 -0.8498110915368318 -0.6040238387447481 0.26475099186455575 42 30 20 0.96 25 0 27 0 28 0 
1459 1.0122612219237064 -0.7605422172036111 0.14214659774320137 31 26 24 0.46 24 0 25 0 26 0 34 0 
1460 -1.7523468425286166 -0.7761912398090358 0.14397760188248554 109 98 94 0.47 24 0 27 0 28 0 
1461 -0.1619565371773734 -0.7820804492627851 0.09920523951998417 51 42 34 0.55 24 0 25 0 26 0 27 0 32 0 
1462 0.44358777932592386 -0.7751995472397277 0.09420682923562718 33 32 29 0.27 24 0 25 0 26 0 27 0 
1463 0.266436390426141 -0.7897225395440788 0.0810446671986208 35 26 22 0.81 24 0 25 0 27 0 
1464 -1.1679442650667786 -0.7253112120893697 0.10346785546490633 117 120 127 0.29 24 0 25 0 26 0 
1465 -1.7294903120850103 -0.7394484145715341 0.09302929531754744 161 167 182 0.42 24 0 25 0 27 0 28 0 32 0 
1466 -1.762500658367142 -0.7269597350168848 0.10239189615529487 97 116 149 0.78 24 0 25 0 27 0 28 0 
1467 0.5102708757619379 -0.6848952027765036 0.09545123329247962 41 26 17 0.6 24 0 25 0 26 0 27 0 
1468 0.01586703119314109 -0.25310786884190045 0.4354769113475224 87 87 89 0.71 24 0 25 0 26 0 
1469 -0.1616904782437074 -0.7195978841811603 0.06251289657092551 60 50 44 0.37 24 0 25 0 26 0 27 0 
1470 -0.4157328358768899 -0.6835939712380412 0.09093016502608264 47 32 23 0.38 24 0 26 0 27 0 
1471 -1.5415004370872696 -0.6927741895330883 0.083789910319226 142 131 123 0.15 24 0 27 0 28 0 
1472 -1.5966837874476594 -0.6828437810949906 0.09116973780552595 145 141 135 0.99 24 0 25 0 27 0 28 0 32 0 
1473 -0.16295803547237747 -0.6933545818156845 0.04221999188613401 56 48 41 0.22 24 0 26 0 27 0 
1474 0.13710822133818656 -0.19563054633829963 0.4150233332298182 79 56 42 0.68 24 0 25 0 27 0 28 0 29 0 
1475 0.015796356679423695 -0.1962281777921622 0.41485869358183936 123 128 132 0.74 24 0 26 0 27 0 28 0 
1476 -0.16301341299903002 -0.6516065195062993 0.029956824110451308 60 52 45 0.52 24 0 25 0 26 0 27 0 28 0 32 0 
1477 -0.13114512500995662 -0.6576958111850275 0.012383417673558883 15 14 12 0.54 24 0 25 0 26 0 27 0 
1478 -0.9409364230006166 -0.5847191490677013 0.07931766364678328 30 20 15 0.68 24 0 25 0 27 0 
1479 0.29070504556785604 -0.6558699695124397 0.016419405001476317 19 19 16 0.63 24 0 25 0 26 0 27 0 
