# 3D point list with one line of data per point:
#   POINT3D_ID, X, Y, Z, R, G, B, ERROR, TRACK[] as (IMAGE_ID, POINT2D_IDX)
# Number of points: 474, mean track length: 5.5
580 -0.5813050315337887 -0.0974727088373355 0.18629226935878263 129 118 110 0.42 0 0 1 0 99 0 
581 -0.6082697576170428 -0.03408945257523888 0.15195130972627768 151 144 135 0.48 0 0 1 0 99 0 
582 -0.30016919373889617 -0.9017637921768316 0.6129955153695912 134 128 122 0.74 0 0 1 0 2 0 4 0 8 0 99 0 
583 -0.4963074902119087 -1.8071644724514313 0.7892075391699049 36 46 63 0.93 0 0 1 0 2 0 3 0 
584 -0.3796478435623176 -0.6951059179715067 0.5089225620485741 129 132 129 0.22 0 0 98 0 99 0 
585 -0.40409696714925425 -0.5540340100634402 0.4531448949438851 44 33 33 0.72 0 0 1 0 2 0 3 0 4 0 6 0 7 0 8 0 9 0 10 0 11 0 12 0 13 0 14 0 15 0 98 0 99 0 
586 -0.35657665615395606 -0.7592869689847996 0.5450351182041409 165 166 164 0.75 0 0 2 0 98 0 99 0 
587 -0.4876049372491773 -0.3862286249002084 0.3487520743688731 145 144 137 1.17 0 0 1 0 2 0 3 0 8 0 
588 -0.30934683505883886 -1.0002161717059608 0.666234466293079 113 121 127 0.49 0 0 3 0 4 0 
589 -0.53624468961911 -0.35277829849348263 0.3254691333081031 142 139 133 0.45 0 0 1 0 2 0 
590 -0.5293262174092603 -0.26951275374422945 0.3013945848347439 111 108 102 0.79 0 0 1 0 2 0 99 0 
591 -0.3869289339255628 -0.7723063565492687 0.5500980906365234 140 138 134 0.84 0 0 2 0 3 0 99 0 
592 -0.4829976907609437 -0.4210859336537065 0.3827940491028823 102 89 81 0.55 0 0 2 0 3 0 5 0 6 0 7 0 8 0 9 0 11 0 12 0 14 0 15 0 16 0 17 0 98 0 99 0 
593 -0.2993439509378033 -2.254664646334966 1.0891761758253464 21 28 22 5.26 0 0 1 0 2 0 3 0 4 0 6 0 7 0 
594 -0.5561091794171409 -0.9408333087551972 0.5026464585364662 131 141 145 3.79 1 0 2 0 3 0 4 0 5 0 8 0 12 0 14 0 
595 -0.5960878904395652 -0.09376564616535421 0.2177501865864656 148 137 127 0.26 0 0 1 0 99 0 
596 -0.6789427972482613 0.12704752729136104 0.10427105921027913 174 174 169 0.98 0 0 3 0 5 0 
597 -0.40673626840494603 -0.6429449221298413 0.5083616501091446 79 64 68 0.39 0 0 2 0 3 0 
598 -0.38372183113113545 -0.7608237986840545 0.5681686531077799 160 160 161 1.25 0 0 2 0 3 0 8 0 99 0 
599 -0.6626199232352215 -1.135263996548859 0.5046213268109978 131 142 147 0.26 0 0 1 0 4 0 
600 -0.4502491881498554 -0.4701480334597812 0.4439083840135798 124 119 119 0.53 0 0 1 0 2 0 3 0 4 0 5 0 6 0 7 0 8 0 9 0 10 0 11 0 12 0 13 0 14 0 99 0 
601 -0.37968438755736567 -0.7005198725904298 0.5673556950355543 133 127 119 0.81 0 0 2 0 3 0 4 0 6 0 10 0 11 0 
602 -0.6271502125812651 -0.030745147116258753 0.20681976073521513 145 135 129 0.59 0 0 1 0 98 0 99 0 
603 -0.5575712481489916 -1.8739844935396508 0.8282930819308243 16 20 24 1.9 0 0 2 0 3 0 4 0 5 0 6 0 
604 -0.5950535474216756 -1.8422904041425052 0.7895078308269703 36 41 53 0.38 0 0 1 0 2 0 
605 -0.6786903854352222 -1.1861845118456125 0.5289261888496072 98 92 100 0.66 0 0 1 0 2 0 3 0 4 0 5 0 6 0 8 0 9 0 10 0 11 0 12 0 13 0 15 0 99 0 
606 -0.7440302936653456 -0.9915337322229505 0.4247716558970305 31 30 34 0.64 0 0 1 0 2 0 3 0 4 0 5 0 6 0 7 0 8 0 9 0 10 0 11 0 12 0 13 0 14 0 15 0 99 0 
607 -0.24448423171669575 0.8243929510711965 0.22717080258039357 44 50 60 0.5 0 0 1 0 2 0 
608 -0.39823997559488267 -0.7016756862343243 0.5742464124240639 97 95 92 0.14 0 0 2 0 3 0 
609 -0.523709599706788 -0.3579685034929888 0.38732329075047855 122 108 94 0.91 0 0 1 0 2 0 4 0 5 0 8 0 
610 -0.19796588586676434 -1.2969061160143383 0.8989257982182266 52 45 47 0.68 0 0 2 0 98 0 
611 -0.42725066579454496 -0.6708976985865938 0.5530780573979915 149 155 152 0.1 0 0 3 0 6 0 
612 -0.5072360753866199 -0.4069666460409862 0.42064905151499954 102 95 89 0.88 0 0 1 0 2 0 3 0 5 0 6 0 7 0 8 0 99 0 
613 -0.5260851605655716 -1.9658959392174438 0.8981872658127787 13 20 14 0.47 0 0 1 0 2 0 3 0 
614 -0.26946103278146816 -1.7282206683416812 0.9996207924972156 25 35 39 0.59 0 0 1 0 2 0 3 0 4 0 
615 -0.5537659152029599 -0.2843943847829513 0.36323661414525654 123 116 107 1.17 0 0 1 0 2 0 3 0 4 0 5 0 6 0 8 0 10 0 11 0 12 0 13 0 14 0 15 0 16 0 99 0 
616 -0.5587347949656232 0.7748944432859222 0.048512475258240206 121 120 141 4.25 0 0 1 0 2 0 
617 -0.739416854642313 -1.0178153047533958 0.46195791829633914 160 164 181 0.5 0 0 2 0 98 0 
618 -0.19311742487753647 -1.257247173938129 0.9178587574574378 122 114 111 0.64 0 0 1 0 2 0 99 0 
619 -0.7506613479713808 -1.0085953858868792 0.45534458234133035 172 179 193 0.33 0 0 3 0 99 0 
620 -0.18357585517398145 0.9277406615080015 0.2846209020862923 30 28 30 1.79 0 0 1 0 2 0 3 0 4 0 5 0 
621 -0.44245701679005633 -0.6252037921565539 0.5584422620425545 92 72 73 0.51 0 0 3 0 6 0 
622 -0.4731231388209294 -0.4736963452488143 0.4963415832691247 78 61 66 0.83 0 0 1 0 2 0 3 0 4 0 5 0 6 0 7 0 8 0 9 0 10 0 11 0 12 0 13 0 14 0 
623 -0.22921696331378794 0.9865035557454997 0.2442816162179724 41 36 38 1.75 0 0 1 0 3 0 
624 -0.4403232678443656 -0.5829661553884649 0.5539123265885324 69 50 54 0.61 0 0 1 0 2 0 3 0 4 0 5 0 6 0 7 0 8 0 9 0 10 0 11 0 12 0 13 0 14 0 15 0 16 0 17 0 
625 -0.45420024667967396 -0.5264495570082866 0.5270482315041962 66 49 55 0.63 0 0 1 0 2 0 3 0 4 0 5 0 6 0 7 0 8 0 9 0 10 0 11 0 12 0 13 0 14 0 15 0 16 0 
626 -0.43143991601953324 -0.4792101855739892 0.5333124590884287 61 40 44 0.48 0 0 1 0 2 0 
627 -0.524539856146583 -0.39801529184689355 0.446110001854646 70 65 63 0.65 0 0 1 0 2 0 3 0 4 0 5 0 99 0 
628 -0.7255888751767336 0.5587246633154845 0.041545905388052695 28 23 24 2.08 0 0 1 0 2 0 98 0 99 0 
629 -0.36288456279446035 -2.1835220947665297 1.1209693465347983 8 16 15 0.59 0 0 1 0 2 0 
630 -0.7490654858034957 0.5533528317703147 0.03037800058140494 28 24 24 1.97 0 0 1 0 2 0 99 0 
631 -0.6877601018761099 0.06066761685672439 0.21602551356889554 148 136 127 1.11 0 0 1 0 2 0 3 0 4 0 5 0 6 0 7 0 8 0 9 0 10 0 11 0 12 0 13 0 14 0 16 0 17 0 18 0 98 0 99 0 
632 -0.7520024503010598 0.594501973685034 0.02151470028652036 39 35 36 0.43 0 0 1 0 2 0 
633 -0.7071530337668974 0.11326979046511021 0.19081243133752213 131 104 96 0.91 0 0 1 0 2 0 3 0 4 0 5 0 6 0 7 0 8 0 9 0 99 0 
634 -0.7305643876413084 -1.0953760512707291 0.5264364316884691 89 54 61 0.54 0 0 1 0 2 0 3 0 4 0 5 0 6 0 7 0 8 0 9 0 10 0 11 0 12 0 13 0 14 0 15 0 98 0 99 0 
635 -0.7076784184678335 -1.1689848739313702 0.5670683325741133 69 58 67 0.72 0 0 1 0 2 0 3 0 4 0 5 0 6 0 7 0 8 0 9 0 10 0 11 0 12 0 13 0 98 0 99 0 
636 -0.6819048174890965 0.02717513652564274 0.2423903119308627 134 121 109 0.71 0 0 1 0 2 0 3 0 4 0 5 0 6 0 7 0 8 0 9 0 11 0 12 0 13 0 14 0 15 0 16 0 99 0 
637 -0.25892165072620044 -1.257437367302868 0.9204866105992559 90 70 64 0.57 0 0 2 0 3 0 
638 -0.7232277788697286 -1.114658416530925 0.5470644600410954 101 10 15 1.34 0 0 1 0 2 0 3 0 5 0 98 0 99 0 
639 -0.5776596519871038 -0.2848712285096614 0.4120584514792105 153 141 133 0.39 0 0 1 0 99 0 
640 -0.7188876885285287 0.6152503363596924 0.0640622468662344 40 33 36 0.52 0 0 1 0 2 0 
641 -0.5564366741685607 -0.29589835894212313 0.43981670641223825 103 97 92 0.56 0 0 1 0 99 0 
642 -0.2158687616431243 0.946382952603665 0.32892257955736603 18 17 17 0.65 0 0 1 0 3 0 
643 -0.522809684710092 -0.4256493380152444 0.5036706914961175 138 150 148 0.49 0 0 1 0 2 0 3 0 4 0 8 0 9 0 12 0 
644 -0.5433655708935627 -0.3873877180137847 0.47567173262682694 70 63 60 0.72 0 0 1 0 2 0 3 0 4 0 5 0 6 0 7 0 8 0 9 0 10 0 11 0 12 0 13 0 14 0 15 0 16 0 17 0 99 0 
645 -0.3066290117311865 0.8808145514819421 0.29017817708372773 38 33 34 0.68 0 0 1 0 2 0 3 0 4 0 
646 -0.7666352246443611 0.5919194483685367 0.04228762005263542 38 32 34 0.21 0 0 1 0 2 0 
647 -0.06766214239066759 -2.44787515207679 1.4604381272334312 34 45 30 1.49 0 0 1 0 2 0 4 0 
648 -0.7778876837269684 -0.971430600606281 0.47831526850632633 34 40 56 0.68 0 0 1 0 2 0 3 0 4 0 5 0 6 0 8 0 9 0 98 0 
649 -0.19114985191973943 -1.5567342228945213 1.0927164566775973 50 52 48 0.56 0 0 2 0 99 0 
650 -0.7400121778469362 -1.117555061646431 0.5592554471579599 112 80 91 1.09 0 0 3 0 4 0 5 0 
651 -0.4158920822289167 0.8310857644458407 0.23920084601679448 44 35 36 0.56 0 0 1 0 2 0 3 0 4 0 
652 -0.542852766841972 0.7443157953798406 0.18098228926076965 51 43 44 1.02 0 0 1 0 2 0 
653 -0.7480307001441189 -1.0878652437498062 0.5532894343915546 81 8 13 0.31 0 0 1 0 99 0 
654 -0.2549595130108664 -1.3200850228896297 0.9916524346938216 106 124 126 1.93 1 0 2 0 4 0 99 0 
655 -0.27529109486549563 -1.2252120132835198 0.9436303725211295 95 85 74 0.31 0 0 2 0 4 0 
656 -0.44654069904085825 -0.7102701146206944 0.6632020422428795 119 106 97 0.7 0 0 1 0 2 0 4 0 5 0 6 0 7 0 8 0 9 0 10 0 12 0 13 0 14 0 
657 -0.8423596742008519 -0.29727422682105364 0.262617137752734 98 98 80 1.29 0 0 1 0 3 0 
658 -0.686494872425417 -0.018128162888968347 0.29951000542770956 153 151 142 0.32 0 0 2 0 99 0 
659 -0.2687131121208701 -1.2731125932127048 0.967464676586425 35 40 45 1.68 0 0 1 0 3 0 4 0 98 0 99 0 
660 -0.6927411209810754 0.6478288436032927 0.11167349919207914 41 35 36 0.59 0 0 1 0 2 0 
661 -0.7428036930800392 -1.300435661863482 0.6327844793355565 79 61 59 2.69 0 0 2 0 3 0 4 0 99 0 
662 -0.7586587435613861 -1.065103933616011 0.5483920344435402 144 152 170 0.4 0 0 98 0 99 0 
663 -0.5680380940373102 -0.3647187823653091 0.48569451234604444 127 121 121 0.33 0 0 1 0 3 0 5 0 98 0 
664 -0.618076286767034 -0.21327572386534666 0.4108038216649651 159 149 135 0.62 0 0 1 0 2 0 3 0 6 0 7 0 99 0 
665 -0.45262334480626554 -0.7051471929405471 0.6774783427628178 100 88 80 0.69 0 0 1 0 3 0 5 0 7 0 8 0 9 0 10 0 12 0 14 0 
666 -0.3531170348152204 -2.2516120876335 1.231072669505461 11 17 13 3.29 0 0 1 0 2 0 3 0 4 0 
667 -0.777640181797244 0.6123459490925767 0.07583498563589575 49 42 43 0.94 0 0 1 0 2 0 
668 -0.7344065475851436 -1.154040413564948 0.6125939584885369 107 107 113 0.66 0 0 1 0 2 0 3 0 4 0 5 0 6 0 98 0 99 0 
669 -0.7589137685248997 -1.0817606843014913 0.5710781525927906 79 29 37 0.44 0 0 2 0 4 0 5 0 6 0 7 0 8 0 9 0 10 0 11 0 12 0 13 0 98 0 99 0 
670 -0.4461573866202466 0.8311807485403668 0.2706637017991602 64 47 44 0.79 0 0 1 0 2 0 3 0 4 0 
671 -1.0282284797780192 -0.08879578773544006 0.09702538446446973 43 56 65 0.93 0 0 1 0 2 0 3 0 4 0 5 0 6 0 7 0 8 0 9 0 
672 -0.4513226305286213 -1.3685759686217775 0.8954843373163897 25 29 33 0.18 0 0 1 0 2 0 3 0 
673 -0.5999243968280987 -0.4393256292056056 0.5110512570709909 125 127 119 3.47 0 0 1 0 2 0 6 0 8 0 9 0 10 0 13 0 
674 -0.8767845218328516 -0.12035904146365262 0.22634266342199139 89 86 64 0.6 0 0 1 0 2 0 3 0 
675 -0.294364368212477 -1.2642156443948263 0.985944906242366 52 52 51 0.39 0 0 1 0 3 0 4 0 99 0 
676 -0.620838666571293 -0.37009884540178994 0.4835731231827769 100 93 78 0.57 0 0 1 0 99 0 
677 -0.744874301606061 0.63574823375414 0.1164580346099846 56 48 54 0.55 0 0 1 0 2 0 
678 -0.30686239626237066 -1.4767579303792056 1.046067251344949 42 46 53 1.73 0 0 1 0 2 0 4 0 
679 -0.5045989517577372 -0.5778998692305617 0.630314203383825 169 163 156 0.94 0 0 1 0 2 0 3 0 4 0 
680 -0.5235222886265456 -2.0767494007129708 1.0761341620235052 24 32 24 0.55 0 0 1 0 2 0 
681 -0.5523085150904896 -1.9991932680668276 1.027206159599848 25 37 26 0.83 0 0 1 0 2 0 3 0 4 0 5 0 
682 -0.5208674979769012 -1.714421440356592 0.96027859286693 22 34 25 0.54 0 0 1 0 2 0 3 0 4 0 
683 -0.53987672078526 -1.9705149785771676 1.0322467450484654 25 36 23 0.64 0 0 1 0 2 0 4 0 
684 -0.344178733823878 -1.5807954701156162 1.0632728276800913 30 38 42 1.16 0 0 1 0 3 0 
685 -0.4726540779599784 -0.6984319430316834 0.6990523204167988 60 72 50 0.73 0 0 1 0 2 0 3 0 4 0 
686 -0.604521998817948 0.736414527562755 0.20933906405137892 47 34 36 1.13 0 0 1 0 2 0 
687 -0.538438069615575 -1.7353549523882414 0.9740119962987851 34 44 29 0.54 0 0 1 0 2 0 
688 -0.8938954674696185 -0.4283764504134624 0.3196160755150004 55 80 41 2.14 0 0 1 0 2 0 3 0 4 0 99 0 
689 -1.0241330908554314 -0.11845234213066269 0.143629725048124 27 38 42 0.49 0 0 1 0 2 0 
690 -0.5882120956491219 -1.9770215764430505 1.0196279120622136 30 45 26 0.34 0 0 1 0 2 0 3 0 
691 -0.7512559063443256 -1.1468353531106839 0.6380371926544215 72 81 59 0.53 0 0 1 0 3 0 6 0 
692 -0.7592145631608267 -1.1023387198967496 0.617564548279206 146 152 167 1.98 0 0 1 0 2 0 3 0 4 0 98 0 99 0 
693 -0.9212549774119119 -0.4201108725551761 0.3067498319512677 44 70 38 1.13 0 0 1 0 2 0 98 0 
694 -0.7909793461905796 -1.050807610804082 0.5833238681626871 137 142 157 0.71 0 0 1 0 4 0 8 0 
695 -0.9979598492547008 -0.4074333542154802 0.2539085200978458 34 59 33 0.57 0 0 1 0 2 0 
696 -0.6653960182820604 -0.38795173355670476 0.5017992126207509 71 81 66 2.19 0 0 1 0 2 0 3 0 4 0 98 0 
697 -1.0221458315261767 -0.18018432045746513 0.17718671622056503 31 41 39 0.5 0 0 1 0 2 0 
698 -1.0298466618334696 -0.16421934004527294 0.16667816578841232 34 44 39 0.92 0 0 1 0 2 0 4 0 5 0 6 0 7 0 8 0 9 0 10 0 11 0 12 0 13 0 99 0 
699 -0.7659109519858653 0.6669524494626432 0.14501005562704894 47 43 47 0.42 0 0 1 0 2 0 
700 -0.6297009733369949 -1.451979285381004 0.8403324224103647 77 75 73 0.49 0 0 1 0 2 0 3 0 4 0 5 0 6 0 
701 -1.0486280259551062 -0.07502483725761899 0.13415070237661353 79 81 86 0.57 0 0 1 0 2 0 3 0 4 0 5 0 6 0 7 0 8 0 9 0 10 0 11 0 12 0 13 0 14 0 
702 -1.060819672049895 -0.033482593009193096 0.1126033168781575 101 97 104 1.1 0 0 1 0 2 0 3 0 4 0 5 0 6 0 7 0 8 0 9 0 10 0 11 0 12 0 13 0 14 0 
703 -0.5517613309835323 -1.6986691262015088 0.980273451449099 74 73 81 0.58 0 0 1 0 2 0 3 0 
704 -0.6040720105452653 -1.792959108466644 0.9721730044529848 25 37 23 3.73 0 0 1 0 2 0 4 0 5 0 6 0 7 0 9 0 
705 -0.7670429431853252 -1.5305931911733792 0.7647442014891045 63 59 64 0.44 0 0 1 0 2 0 3 0 4 0 
706 -0.7694882403406609 -1.1135629476142819 0.6377715119715416 141 149 166 0.2 0 0 1 0 3 0 98 0 
707 -0.80069585504477 -1.553175844460591 0.7540047912915261 31 39 48 0.56 0 0 1 0 3 0 4 0 
708 -0.7140591707330224 -0.4354986909698122 0.5180732289368373 79 80 77 0.78 0 0 1 0 2 0 99 0 
709 -0.44443249085919323 -2.2733531717446054 1.2771843850121551 39 39 47 2.09 0 0 1 0 2 0 4 0 5 0 6 0 9 0 
710 -0.7926393159695719 -1.2794104334075675 0.7092127196946059 75 91 86 0.73 0 0 1 0 2 0 3 0 4 0 5 0 6 0 8 0 9 0 10 0 11 0 12 0 13 0 98 0 99 0 
711 -0.8366401093525917 -0.9382729983486329 0.5739690720353896 61 69 53 0.96 0 0 1 0 2 0 3 0 4 0 5 0 6 0 7 0 8 0 9 0 10 0 11 0 12 0 13 0 14 0 98 0 99 0 
712 -1.0868419833986958 -0.25737495146558553 0.19716625107045893 39 55 27 0.42 0 0 1 0 2 0 
713 -0.8194484772646693 -1.009459993406769 0.6177500629430234 107 121 112 1.31 0 0 1 0 4 0 98 0 
714 -1.0375523031357543 -0.4186431852662791 0.28227771205495755 35 50 27 0.69 0 0 1 0 2 0 
715 -0.8226804227477664 -1.141937701367801 0.6583272015955925 56 70 43 2.07 0 0 2 0 99 0 
716 -1.0970863997651292 0.03953022898449121 0.12616668191739222 72 100 62 1.06 0 0 1 0 2 0 
717 -1.0457882569384231 -0.4263631172626572 0.2961743665721559 50 75 49 0.59 0 0 1 0 99 0 
718 -1.0549045580456988 -0.23903063703925598 0.23887921021757053 61 83 45 3.81 0 0 1 0 2 0 3 0 4 0 8 0 
719 -0.6282418173460198 -1.945810139148158 1.0732409761953146 34 31 29 0.52 0 0 1 0 2 0 
720 -0.6497310038168693 -2.089685298909358 1.1042960658238914 43 42 50 0.47 0 0 1 0 2 0 
721 -1.1258853433863443 -0.2090756371155763 0.1852159596547941 123 134 119 1.57 0 0 1 0 2 0 4 0 5 0 6 0 
722 -0.6986563259071452 -1.8765319365361848 1.004139186065822 71 73 70 0.22 0 0 1 0 2 0 
723 -0.9370283879110948 -0.4845571211666717 0.4176231901436298 76 64 63 1.49 0 0 1 0 4 0 98 0 
724 -0.9522768662782257 -0.8031707008414422 0.48965654460250607 111 93 92 3.63 0 0 1 0 98 0 99 0 
725 -1.108607309643577 0.081424068054879 0.13884334306687585 70 65 66 2.76 0 0 2 0 3 0 5 0 6 0 8 0 9 0 10 0 
726 -0.7897684616786551 -1.5598523572042204 0.845134358969608 33 31 34 3.36 0 0 1 0 2 0 3 0 4 0 9 0 
727 -0.7274165780011821 -2.0173480783133835 1.0397958311293913 88 76 79 0.61 0 0 2 0 3 0 
728 -1.136956887070579 -0.273678518529734 0.21218477476941588 34 49 22 2.62 0 0 1 0 4 0 5 0 7 0 12 0 
729 -0.9115557936442593 -0.8443832126454556 0.549999921364342 62 52 51 0.61 0 0 1 0 2 0 
730 -1.0188450030493506 -0.4707200853648752 0.36475024886214247 98 93 90 2.4 0 0 1 0 2 0 3 0 98 0 
731 -1.027330025122345 -0.4448692447566611 0.3555265100766013 116 111 104 1.14 0 0 98 0 99 0 
732 -0.8362255164060663 -1.5316637591094893 0.8102598834515254 35 32 34 0.65 0 0 1 0 2 0 3 0 4 0 5 0 6 0 7 0 9 0 10 0 
733 -0.8201906922745319 -1.713698759129776 0.8812597683802416 65 49 55 0.43 0 0 1 0 2 0 
734 -1.0607988179648882 -0.4066354898664084 0.3288931249666016 76 59 61 0.44 0 0 1 0 98 0 
735 -1.0104250256295118 -0.729943986210621 0.4575740482722441 153 141 140 1.09 0 0 1 0 2 0 3 0 4 0 98 0 
736 -1.058800777257385 -0.5208276075979497 0.36146052389521055 73 53 57 1.03 0 0 1 0 2 0 4 0 6 0 7 0 8 0 9 0 99 0 
737 -1.101148451077578 -0.3958276636230137 0.29774475249724264 74 62 65 2.53 0 0 1 0 3 0 4 0 7 0 9 0 
738 -0.8883430740072951 -1.5559710210011508 0.7898139589148523 50 48 49 0.69 0 0 1 0 2 0 3 0 4 0 5 0 6 0 7 0 8 0 9 0 10 0 98 0 99 0 
739 -1.1282776517799948 -0.3970011884058027 0.2780568236142319 88 79 86 1.49 0 0 1 0 2 0 3 0 5 0 6 0 7 0 10 0 
740 -0.9071070810570732 -1.0823559911726246 0.640938491608764 51 51 45 1.5 0 0 3 0 4 0 5 0 6 0 11 0 
741 -0.9193450055043588 -1.0758901112881516 0.631784815459053 83 74 80 0.38 0 0 1 0 2 0 
742 -0.9056578978108465 -1.6400592435142622 0.8115511323921317 54 46 54 1.02 0 0 1 0 2 0 
743 -0.9319336117194383 -1.527899598097031 0.7558039063775573 57 45 53 0.19 0 0 1 0 2 0 
744 -0.955132449700314 -1.5843966828032776 0.7553274447589535 60 56 65 0.37 0 0 1 0 2 0 3 0 4 0 
745 -0.9052405391811236 -1.6988118128248015 0.8317326517337361 77 63 70 2.47 0 0 1 0 2 0 3 0 5 0 
746 -0.9572235121494639 -1.6009529291381865 0.7623706766318539 60 60 72 0.59 0 0 1 0 2 0 3 0 4 0 
747 -0.9537563801201479 -1.7174816817663274 0.8002992409875674 76 70 74 0.25 0 0 1 0 2 0 
748 -1.2064467595624169 -0.5896493225736876 0.29489041798941606 111 109 105 0.74 0 0 1 0 4 0 
749 -1.1721030577233742 -0.7532961674741181 0.36674465557757197 149 147 153 0.55 0 0 1 0 3 0 4 0 
750 -1.0722262067760575 -1.5663521028802772 0.6760559588257773 71 59 67 0.6 0 0 1 0 2 0 
751 -1.088298760733416 -1.5833503454724716 0.672797316319887 60 52 61 0.35 0 0 1 0 2 0 
752 -1.0967863249224503 -1.7733478961712994 0.7313559887803678 70 62 75 0.88 0 0 1 0 2 0 
753 -1.1658057956481371 -1.3090285513688869 0.5439307653956986 70 54 59 0.69 0 0 1 0 2 0 3 0 4 0 
754 -1.1455896296704366 -1.731307339598554 0.6840993381743242 64 57 67 0.45 0 0 1 0 2 0 
755 -1.1571894430658654 -1.5968817886250182 0.6361717560639464 57 47 53 0.37 0 0 1 0 2 0 
756 -1.1565121137764625 -1.6540732170826902 0.6541079019704439 58 50 58 0.45 0 0 1 0 2 0 
757 -1.1643065167084397 -1.577422780225261 0.6253510891422209 66 59 67 0.33 0 0 1 0 2 0 
758 -1.3367919479954338 -0.5842050772016731 0.2154256380817996 73 57 68 2.02 0 0 1 0 2 0 4 0 
759 -1.1962341626742317 -1.6299621647421414 0.6208597052899599 58 51 60 0.23 0 0 1 0 2 0 
760 -1.3674657685203118 -0.6304369155961056 0.21331268450216412 68 58 69 1.07 0 0 1 0 2 0 3 0 4 0 5 0 
761 -1.0783705453937442 -1.751121563855773 0.7705997170917493 84 75 92 2.8 0 0 3 0 4 0 
762 -1.1791461321970138 -1.7828864247072753 0.6870775116897789 59 58 72 1.25 0 0 1 0 2 0 
763 -1.2338626831303163 -1.4144127023836652 0.5340301003847909 110 120 125 0.15 0 0 1 0 2 0 
764 -1.210586598849529 -1.742393641082461 0.6491329211865317 60 54 61 0.44 0 0 1 0 2 0 
765 -1.4561857160676321 -0.4359189180114804 0.09088288645057396 80 62 73 0.44 0 0 1 0 2 0 
766 -1.2629337747792986 -1.4477838586475358 0.5284281991267579 58 51 60 0.3 0 0 1 0 2 0 
767 -1.2797001248449023 -1.5817047800637967 0.5562457577356785 50 39 51 0.26 0 0 1 0 2 0 
768 -1.5126104961602331 -0.4357938805596364 0.05627942985097789 110 112 118 1.04 0 0 1 0 2 0 4 0 8 0 
769 -1.2610823218236795 -1.8904656138607507 0.6627958814122047 77 69 86 0.52 0 0 1 0 2 0 3 0 
770 -1.4574154237512127 -0.7184377225481284 0.17792676580219247 61 52 62 2.49 0 0 2 0 4 0 
771 -1.5150542197436179 -0.41877321101756815 0.05056262455472971 139 136 149 0.2 0 0 1 0 2 0 
772 -1.4556842673198405 -0.6988909854296865 0.1794437674590933 64 56 65 0.82 0 0 1 0 2 0 3 0 4 0 
773 -1.3018765829566397 -1.5970337612131178 0.549919450699978 55 48 57 0.47 0 0 1 0 2 0 
774 -1.538280279613686 -0.40699747555677335 0.034638862607941245 58 50 62 0.22 0 0 1 0 2 0 
775 -1.4377650917755431 -0.8489553273580133 0.24023051702107878 108 106 109 0.58 0 0 1 0 2 0 3 0 4 0 
776 -1.3275310815646966 -1.6120843160237335 0.5390453528297243 81 80 91 0.36 0 0 1 0 2 0 
777 123.56614150222192 -9.127865981066858 -13.281877730510844 222 245 255 0.61 1 0 2 0 3 0 4 0 
778 -0.03231115491321046 -2.135570315019197 -0.6099425477190294 130 178 208 1.45 1 0 2 0 3 0 4 0 5 0 6 0 7 0 
779 -0.050139536056152734 -1.9134132533363764 -0.6703792158213251 93 136 165 0.69 1 0 2 0 3 0 4 0 5 0 6 0 
780 135.63164717551987 -8.524225251196132 -13.197352203799703 236 250 255 0.62 1 0 2 0 3 0 4 0 
781 -1.191301556414014 -0.8827539224384935 -0.9764537931935093 127 112 89 2.3 1 0 2 0 4 0 
782 -0.08553862344759677 -1.8520509021384284 -0.6759084719881558 137 163 180 0.98 1 0 2 0 3 0 4 0 5 0 
783 -0.010988038355093321 -1.8925620204416906 -0.6672153884036667 166 204 221 0.8 1 0 2 0 3 0 4 0 
784 -0.07102067685539493 -2.1491013615380536 -0.5516320698429968 102 164 211 1.11 1 0 2 0 3 0 5 0 6 0 
785 -0.029169810089345827 -1.9222042594534516 -0.6420674152075323 133 191 216 0.54 1 0 2 0 3 0 4 0 
786 -1.1992863135174587 -0.913853623605164 -0.9482895117909864 218 229 223 3.79 1 0 3 0 4 0 
787 -0.03825968137729219 -2.1806706075292555 -0.5235982282922205 177 223 240 1.36 1 0 2 0 3 0 5 0 
788 0.02525654067114247 -2.0165176827288063 -0.5858129657090536 149 182 204 2.63 0 0 1 0 2 0 3 0 4 0 5 0 6 0 
789 -1.2074104289682117 -0.8889853772288259 -0.9460156421294834 118 151 141 1.72 1 0 3 0 4 0 
790 0.07908687458836083 -2.066315519662882 -0.5637600150302262 129 159 182 2.7 1 0 4 0 6 0 
791 -0.021178415027408137 -1.8945757865919417 -0.6247647283630282 105 136 168 0.32 1 0 2 0 4 0 
792 0.027620395677279364 -2.036804626537955 -0.5524490709133905 133 106 92 0.25 1 0 2 0 3 0 4 0 
793 -0.012816629389556633 -2.3888170326532414 -0.3981672027673411 76 107 134 1.51 1 0 2 0 3 0 4 0 
794 -1.248667417972906 -0.8714323863469386 -0.9323508340925413 54 85 60 1.51 1 0 2 0 4 0 
795 0.10260668952431229 -1.8875010120266962 -0.5967143281924305 145 164 181 1.89 1 0 3 0 4 0 5 0 
796 0.0010366512038664233 -2.0792551778084913 -0.5030449618884565 152 169 180 0.7 1 0 3 0 5 0 6 0 
797 0.08157470909513442 -1.899922906789118 -0.5711710604307654 152 156 159 1.81 1 0 3 0 4 0 6 0 
798 0.07688267400141124 -2.1974996842352326 -0.4477489095381655 229 251 254 0.56 1 0 2 0 4 0 
799 0.04807702736271113 -2.2967096339495976 -0.3971466013709948 114 123 130 0.33 1 0 3 0 4 0 
800 0.04274723942910241 -2.056177358472138 -0.49361145377815285 130 122 152 0.95 1 0 2 0 3 0 4 0 5 0 6 0 
801 -0.02828823375995637 -2.065526968820773 -0.4746021687571522 201 234 253 0.85 1 0 2 0 3 0 4 0 5 0 6 0 
802 -0.009049199992720691 -2.2044171219746733 -0.418391919484989 87 103 116 2.13 1 0 2 0 3 0 4 0 5 0 6 0 
803 -0.04210363293534658 -2.1219862373431955 -0.4414849097196998 83 102 120 1.31 1 0 2 0 3 0 4 0 6 0 
804 0.621034697643958 -1.7676016855233894 -0.6114462849059874 218 220 225 2.48 1 0 3 0 5 0 
805 -0.017265503135133198 -1.9408494589681642 -0.5101722704031202 98 110 147 2.29 1 0 2 0 3 0 4 0 
806 0.0423741325125071 -2.084658639665122 -0.4426468208281715 80 109 140 1.61 1 0 3 0 4 0 5 0 6 0 
807 -1.23211278726401 -0.9273720663592033 -0.864420701380676 148 179 177 3.11 1 0 2 0 4 0 
808 0.21502353634918903 -1.9189576056788218 -0.49110006594402167 179 198 224 0.58 1 0 2 0 3 0 4 0 
809 0.38828168979227407 -1.7817752007088983 -0.5370140938830816 136 161 193 2.04 1 0 3 0 4 0 5 0 9 0 10 0 11 0 12 0 13 0 14 0 15 0 16 0 
810 0.2618356798375472 -1.8619923780132777 -0.494404653084104 147 165 194 1.13 1 0 2 0 3 0 4 0 5 0 6 0 
811 0.3235715885553171 -2.0062619251733675 -0.4285153620114759 156 187 213 0.48 1 0 2 0 3 0 4 0 5 0 6 0 
812 0.13974486117708662 -2.040298695521005 -0.3926052809403029 143 176 204 1.97 1 0 3 0 4 0 5 0 6 0 
813 0.6449145457040251 -1.6187942632758545 -0.5669722792258582 92 80 77 0.86 1 0 2 0 3 0 4 0 
814 0.22308868209399813 -1.9381280526560014 -0.38479290215635586 63 81 95 1.35 1 0 2 0 3 0 4 0 5 0 6 0 11 0 13 0 
815 0.48923114737164 -1.3609308711211818 -0.5928201387290679 160 158 152 0.61 1 0 2 0 3 0 4 0 7 0 8 0 10 0 11 0 
816 -1.338211731700641 -0.9891521131542407 -0.7586084006376559 67 91 75 0.61 1 0 2 0 4 0 
817 0.3880335677845046 -1.838898748552934 -0.3707848176644166 106 120 127 2.47 1 0 2 0 3 0 4 0 
818 0.472650925295095 -1.3568320466551218 -0.5592826805666788 141 133 128 0.79 1 0 2 0 3 0 4 0 7 0 9 0 10 0 11 0 
819 0.457825653398494 -1.6692157922119744 -0.38067541650456893 163 138 107 0.54 1 0 2 0 3 0 4 0 5 0 
820 0.30436419636302126 -2.0281308631984443 -0.239059614039967 64 70 80 3.0 1 0 2 0 3 0 
821 0.24230043569239657 -1.6974021277503442 -0.3383477161783577 138 118 91 0.53 1 0 2 0 3 0 4 0 5 0 
822 0.18168222254373267 -1.7512437657505566 -0.3152568198775336 122 121 106 1.02 1 0 2 0 3 0 
823 -1.3772659244703125 -0.9555470139176312 -0.7284678076512012 56 69 60 1.07 1 0 2 0 4 0 
824 -1.3615752041510725 -0.9512513467204153 -0.7152773745877468 67 92 67 0.24 1 0 2 0 4 0 
825 0.4666364545707875 -1.8535997555309536 -0.21984893356313906 99 128 115 0.32 1 0 2 0 3 0 
826 0.5104165944567294 -1.8777941666992384 -0.1762619191695045 72 86 78 0.13 1 0 3 0 4 0 5 0 
827 0.3744943569020962 -1.3343799927247955 -0.35214638527401076 143 130 126 0.48 1 0 4 0 8 0 
828 -1.307269319799585 -0.9478507367601943 -0.677561562079235 186 177 163 3.63 1 0 3 0 4 0 
829 0.21951879332723734 -0.9722389302784669 -0.48541991114774063 134 126 119 0.62 1 0 2 0 3 0 7 0 8 0 9 0 10 0 11 0 12 0 13 0 14 0 15 0 16 0 17 0 18 0 
830 0.10715784034771847 -0.7175789434439863 -0.5720350182707645 162 158 153 0.34 1 0 2 0 8 0 
831 -1.5995537915550047 -0.8836702386234705 -0.7113997801237 44 55 35 1.28 1 0 3 0 4 0 
832 0.19041475830856514 -0.8533866397661538 -0.4913934823603725 195 194 186 0.35 1 0 3 0 98 0 
833 0.16144318925435885 -0.806634443950845 -0.5120449502652433 163 146 144 0.39 1 0 2 0 3 0 
834 -1.6040561931742034 -0.9083845031248163 -0.6977601318041233 47 72 48 0.56 1 0 2 0 3 0 4 0 
835 0.34161667326836787 -1.4192781269779842 -0.21787570990513783 113 115 116 0.11 1 0 2 0 4 0 
836 0.3755756663032048 -1.4595759424615722 -0.19022706877242612 139 126 116 0.89 1 0 2 0 3 0 8 0 9 0 13 0 16 0 
837 -1.3902490549628583 -0.9454509990170272 -0.638535390537381 150 153 137 2.31 1 0 2 0 3 0 
838 0.489001393827854 -1.7535937470045744 -0.018097963781980475 90 91 85 0.63 1 0 2 0 99 0 
839 0.15487279226827844 -0.7965204746875154 -0.4384166418733526 145 164 174 0.2 1 0 2 0 8 0 
840 0.5044607242893702 -1.8378716523361478 0.02693726718933176 117 116 111 0.78 1 0 2 0 3 0 4 0 5 0 99 0 
841 0.37260974564409277 -1.5034867199542161 -0.11989582231821627 131 117 106 0.7 1 0 2 0 3 0 4 0 8 0 9 0 10 0 11 0 13 0 15 0 
842 0.1621908209249685 -0.8463786114668705 -0.40842749116651667 182 192 198 0.54 1 0 3 0 9 0 
843 0.44232840245072547 -1.6910127219443536 -0.03587197667936737 170 153 138 0.52 1 0 2 0 3 0 4 0 98 0 
844 0.04365512100282465 -0.6495259947038943 -0.47897579616535113 167 159 152 1.36 1 0 2 0 99 0 
845 0.12237016029233083 -0.7499028631198053 -0.4136608183399657 127 142 154 1.62 1 0 2 0 99 0 
846 0.43534586291215893 -1.7152678178104683 0.013342357586693332 79 75 65 1.44 1 0 2 0 98 0 99 0 
847 0.497179467274558 -1.7889328657261296 0.0604858936495849 63 61 62 1.56 1 0 2 0 3 0 4 0 98 0 99 0 
848 0.1539484326795919 -0.8831456510746556 -0.3437899506483588 154 169 179 1.04 0 0 1 0 2 0 3 0 6 0 7 0 8 0 9 0 10 0 11 0 12 0 13 0 14 0 15 0 16 0 98 0 99 0 
849 0.46150696647709843 -1.6972309618368888 0.04544701953690211 54 57 57 0.53 1 0 2 0 4 0 
850 0.26437691727764934 -1.3083401474839838 -0.13750125825646875 106 104 101 0.55 1 0 2 0 3 0 4 0 8 0 9 0 10 0 11 0 12 0 13 0 14 0 15 0 16 0 99 0 
851 -1.5969237395215516 -0.8893018327686597 -0.6478881316824201 79 81 53 0.99 1 0 2 0 4 0 
852 0.48492464372747146 -1.7501761810718464 0.07784262718647428 58 60 60 0.62 1 0 2 0 3 0 4 0 
853 0.4858669083378797 -1.7979545732441051 0.10347946404788377 72 81 76 0.86 1 0 2 0 4 0 99 0 
854 0.41041247402573977 -1.6844076895702018 0.06643163456056334 139 167 176 2.7 1 0 3 0 98 0 99 0 
855 0.4632913381809587 -1.7384660600888815 0.1058162063082091 152 166 174 0.51 1 0 2 0 4 0 
856 -1.6394463441781884 -0.860821833107748 -0.65185689661305 74 105 77 0.75 1 0 2 0 3 0 4 0 
857 0.12592684264797804 -1.0039133399756268 -0.22453713753254245 149 147 147 0.48 1 0 3 0 98 0 
858 0.418130309330203 -1.6753819253757245 0.10205640347938738 173 193 203 0.47 1 0 2 0 3 0 4 0 99 0 
859 0.4332755624311957 -1.7285287129579736 0.13055481606621633 118 142 154 0.49 1 0 2 0 3 0 4 0 99 0 
860 0.44555647404486143 -1.7788348553901516 0.15826895509996475 136 161 176 0.62 1 0 2 0 3 0 4 0 99 0 
861 0.05571717058573378 -0.8720247272291486 -0.24787801313011593 156 164 172 2.73 1 0 2 0 3 0 
862 -1.6322221834412274 -0.8663323543256978 -0.6293733763938982 115 130 111 2.4 1 0 2 0 3 0 
863 0.40064363274331294 -1.6665674125021488 0.12844714002448998 153 174 182 0.62 1 0 2 0 3 0 4 0 99 0 
864 0.35050368083285444 -1.6115643609909391 0.0966856859148173 91 105 101 0.35 1 0 3 0 99 0 
865 -1.618739289484936 -0.87948134658772 -0.6173947306423557 37 56 41 0.51 1 0 2 0 3 0 4 0 
866 0.41206423629598254 -1.7650103459365198 0.18004049976880065 75 103 117 0.28 1 0 2 0 99 0 
867 0.1154354295233555 -1.0272501005073995 -0.16290262806008782 168 161 157 0.29 1 0 98 0 99 0 
868 0.485554383040107 -2.0507783618587636 0.3188893045415685 94 93 90 0.56 1 0 2 0 3 0 4 0 99 0 
869 -1.5645662005589125 -0.9315104215658256 -0.5762172502147274 58 88 63 2.98 1 0 2 0 4 0 
870 0.08995578815142102 -0.997101206598491 -0.15301334166019442 169 166 162 0.64 1 0 98 0 99 0 
871 -0.04042146389893109 -0.6706269352902807 -0.28164887324881516 115 130 133 0.37 0 0 2 0 98 0 99 0 
872 -1.6672156961295481 -0.921647267910503 -0.5911859076372623 57 79 62 0.85 1 0 2 0 3 0 
873 0.2833905169527058 -1.5486559853896626 0.13751328791216866 131 126 122 0.54 1 0 3 0 4 0 98 0 99 0 
874 0.20393308520890607 -1.343806066452159 0.04304138596580387 146 138 131 0.28 1 0 98 0 99 0 
875 0.4218791418691701 -1.7485130099898785 0.24846583621234208 108 139 148 0.2 1 0 3 0 4 0 
876 0.26601704710301877 -1.5260813498383785 0.12769429364044804 115 109 105 0.62 1 0 2 0 98 0 99 0 
877 0.18717635672600275 -1.2750689979631302 0.02223954936279271 130 127 124 0.7 1 0 4 0 99 0 
878 -1.6693766932317187 -0.8479741398154781 -0.6133458828589433 88 124 99 0.53 1 0 2 0 3 0 4 0 
879 -1.6538373075281887 -0.8777618821955604 -0.5936578638751415 46 62 42 1.0 1 0 2 0 4 0 
880 0.3960904310843545 -1.8919539643722605 0.3265454320929305 68 69 73 0.34 1 0 2 0 99 0 
881 0.36644629559159914 -1.7512703669741876 0.2841327941589421 103 89 94 0.54 1 0 2 0 3 0 4 0 99 0 
882 -1.6859877927664095 -0.8750000405977283 -0.5936460077526047 21 26 23 0.66 1 0 2 0 3 0 4 0 
883 -1.6653721690903784 -0.8318791387029851 -0.6025876078738408 33 45 31 0.49 1 0 2 0 4 0 
884 0.37218228899805106 -1.7190796672549793 0.3055700887582501 99 127 136 1.27 0 0 1 0 2 0 3 0 4 0 98 0 99 0 
885 0.3499505328847967 -1.6730027765496416 0.2779385788841139 173 191 198 0.75 1 0 2 0 3 0 4 0 98 0 99 0 
886 0.0018343925168158304 -0.9308321127241419 -0.06914682371489711 121 121 121 0.04 1 0 2 0 99 0 
887 -1.6940709103987206 -0.9298334562841979 -0.5521934024138064 29 30 20 4.48 1 0 2 0 3 0 
888 -1.5644843003127928 -1.0094294928560412 -0.47485914212540536 139 152 144 3.55 1 0 2 0 3 0 
889 0.27391697048894104 -1.6475053435349285 0.335507197136513 158 180 187 1.07 0 0 1 0 2 0 3 0 99 0 
890 -1.4474944104127079 -1.0299198930164595 -0.42668434896346374 146 134 124 0.96 1 0 2 0 4 0 
891 -0.0543683681329139 -0.8328997178419435 -0.05979884681541492 65 63 65 0.55 1 0 2 0 7 0 8 0 9 0 10 0 11 0 12 0 13 0 14 0 15 0 16 0 17 0 18 0 
892 0.3284493711225839 -1.8327057129505617 0.4300305830749621 102 95 91 1.56 1 0 2 0 4 0 98 0 99 0 
893 0.3156651518240853 -1.6920396839327736 0.39444706240038874 131 158 174 0.6 1 0 2 0 3 0 4 0 
894 -1.4389329007935336 -1.055484128449739 -0.4009674266012693 161 158 142 0.89 1 0 2 0 3 0 
895 0.21884064520527113 -1.5382533828718767 0.3118878103682863 73 59 66 0.63 1 0 2 0 3 0 4 0 99 0 
896 -1.462100194323506 -1.02011989981898 -0.418027707854739 75 83 65 1.66 1 0 3 0 4 0 
897 6.038876293106465 -5.260768613557879 3.5622031523463056 149 162 174 0.68 1 0 2 0 4 0 
898 0.12143340013628712 -1.3511572914024685 0.22052291348541608 147 144 138 1.03 1 0 2 0 98 0 
899 5.637647625795171 -5.1687654203007405 3.4207868518143023 90 84 80 0.75 1 0 2 0 3 0 4 0 
900 0.287707930313839 -1.7063631127609515 0.41048873988669643 88 74 83 0.82 1 0 2 0 3 0 4 0 5 0 99 0 
901 -0.05276627798205191 -0.8713152481707518 0.004202327014990681 108 102 106 0.71 1 0 2 0 3 0 99 0 
902 -1.6563916687403129 -0.9922735590810545 -0.48567974721845397 34 45 28 1.17 1 0 3 0 4 0 
903 -1.7276107947019017 -0.9375169454724939 -0.5300321472530265 56 78 55 1.09 1 0 2 0 3 0 4 0 
904 5.606824624891567 -5.1456019302083345 3.4797498578350856 96 98 96 0.91 1 0 2 0 3 0 4 0 
905 0.2470013362720178 -1.6304844227450597 0.4039909186760611 36 33 34 1.58 1 0 2 0 3 0 5 0 99 0 
906 0.009130079232366306 -1.0743550728478233 0.12737141369451732 130 120 117 0.66 1 0 2 0 3 0 4 0 9 0 98 0 99 0 
907 5.806288716647619 -4.967711232413689 3.537750333694996 164 184 199 0.56 1 0 3 0 4 0 
908 -1.7481519151210219 -0.8948563819944975 -0.5423189778266146 36 45 32 1.29 1 0 2 0 3 0 4 0 
909 -1.6549896565746767 -0.9859401080685639 -0.47508410517579036 77 82 72 2.49 1 0 2 0 3 0 
910 -1.6436447482710996 -0.9302002393351483 -0.49137957989997383 30 33 19 1.8 1 0 2 0 4 0 
911 -1.6634673374333315 -0.9200183836719595 -0.500835733536154 58 75 58 3.99 1 0 2 0 4 0 
912 0.13122024139611543 -1.4737842070804275 0.3283866410083405 135 131 124 1.26 1 0 2 0 4 0 99 0 
913 5.7826650222922655 -5.061978287484034 3.6027586924701507 65 55 54 0.7 1 0 2 0 3 0 4 0 
914 -0.0158078209445891 -1.0666305264738998 0.1628802386312782 136 129 127 1.52 1 0 2 0 3 0 4 0 98 0 99 0 
915 0.08651864697466949 -1.3640060904064897 0.31878741214940065 108 104 104 0.74 1 0 2 0 3 0 9 0 98 0 99 0 
916 5.181937349211834 -4.92478138633185 3.474944886505477 51 50 47 1.79 1 0 2 0 3 0 4 0 
917 6.545311321356652 -5.187700147392535 4.079222314185889 142 161 177 0.93 1 0 2 0 3 0 
918 5.541675788026208 -4.9091340720272605 3.6528102758464174 44 42 37 0.58 1 0 2 0 3 0 4 0 
919 0.047242131276625576 -1.2835180403693711 0.3157695883209781 131 121 120 0.16 1 0 2 0 98 0 
920 -0.07001620069424064 -0.9900385258140207 0.17465161263018547 106 100 97 0.54 1 0 4 0 8 0 99 0 
921 -0.09829720575067658 -0.9160766127816005 0.14902233446854962 119 103 96 1.04 0 0 1 0 2 0 3 0 8 0 9 0 10 0 11 0 12 0 13 0 14 0 16 0 17 0 18 0 98 0 99 0 
922 -1.7208727422718464 -0.8852958216766467 -0.4954487171659441 24 34 23 0.7 1 0 2 0 3 0 4 0 
923 -0.08895146358735095 -0.9926928084622759 0.1967184855705082 142 128 119 0.72 1 0 4 0 99 0 
924 0.35039708274100134 -2.079170988692292 0.7738646698244117 76 71 69 0.5 1 0 4 0 99 0 
925 -1.6985376294864054 -0.9173200095480343 -0.46553115436441317 38 43 39 1.15 1 0 2 0 3 0 4 0 
926 -0.14873031906893686 -0.8006748404578932 0.12335651730307107 151 146 141 0.45 1 0 3 0 98 0 99 0 
927 -1.6651193836425529 -0.9463786064882975 -0.4384774049704985 25 37 27 0.59 1 0 3 0 4 0 
928 0.03429811245612302 -1.3585628119461615 0.4185175389585045 150 148 143 0.67 1 0 2 0 98 0 99 0 
929 -0.0032836377660820926 -1.2727039635430488 0.37429066843167746 92 92 97 0.45 1 0 98 0 99 0 
930 -0.13405891752264454 -0.8799698332593939 0.18276787203546263 105 95 91 0.7 0 0 1 0 2 0 3 0 8 0 9 0 10 0 11 0 12 0 14 0 15 0 98 0 99 0 
931 -0.09317379436753392 -1.010606788320464 0.2506630217938859 164 158 150 0.77 0 0 1 0 2 0 98 0 99 0 
932 0.03028091104911157 -1.3873812682839801 0.4418609905338198 127 122 117 1.59 1 0 2 0 98 0 99 0 
933 0.18685614647008575 -1.8500050909393384 0.6755579091463781 84 77 70 3.19 1 0 98 0 99 0 
934 -0.21941729399331833 -0.65901655513731 0.09418714775802361 144 130 117 0.44 1 0 2 0 99 0 
935 -1.720861232274051 -0.8411266208141133 -0.4798668999404052 16 26 16 1.48 1 0 2 0 3 0 
936 0.0018034674197011658 -1.2810227659173654 0.41314025546877975 110 100 95 0.97 1 0 3 0 4 0 9 0 11 0 13 0 99 0 
937 -0.1850253670287043 -0.7959327964805565 0.17060553294679326 132 126 122 0.72 1 0 2 0 99 0 
938 0.17439912775516864 -1.7902582934925413 0.6808943576964082 82 77 71 0.32 1 0 2 0 99 0 
939 -0.044367144926027224 -1.199134073670405 0.3857719696015611 139 132 131 0.34 1 0 98 0 99 0 
940 0.3494764653348691 -2.27187155660895 0.9505858472962281 97 103 95 0.55 1 0 3 0 5 0 6 0 
941 0.19364224422487375 -1.8640834148366452 0.7350833949342991 88 80 72 0.54 1 0 3 0 99 0 
942 -0.1300585083003385 -0.9399849566562428 0.2698392232719322 110 100 94 1.72 0 0 1 0 2 0 3 0 9 0 13 0 98 0 99 0 
943 -0.22164754322491453 -0.8263423322851344 0.20006785119287396 151 146 141 0.99 1 0 2 0 3 0 
944 -0.06527939811442751 -1.1743789091748311 0.3976080826328581 140 135 127 0.6 1 0 4 0 98 0 99 0 
945 0.16182496920367728 -1.8520081072651686 0.7789563293299469 97 93 86 0.65 1 0 2 0 3 0 4 0 99 0 
946 -0.06394042425662971 -1.240720223310235 0.4759989101893771 119 112 108 0.27 1 0 2 0 98 0 
947 -0.04449681592896959 -1.2800657778826905 0.5023413489274463 114 110 105 3.08 1 0 98 0 99 0 
948 -1.6792676239443678 -0.9275096628035762 -0.39177617912337426 46 65 46 2.23 1 0 2 0 4 0 
949 0.03028357615985411 -1.49678820911111 0.6210368310892753 39 38 39 0.56 1 0 4 0 98 0 99 0 
950 -1.7009444967680676 -0.9182146508101761 -0.40195062654184266 20 27 18 0.66 1 0 2 0 3 0 4 0 
951 0.11904562912156846 -1.7931995880256972 0.7878127772250337 73 62 58 0.5 1 0 2 0 99 0 
952 0.01375447011777875 -2.131942352980122 0.869352911441402 56 61 56 1.45 0 0 1 0 2 0 3 0 4 0 5 0 6 0 
953 0.22867509802282115 -2.2076416316478253 1.015787565906745 78 75 71 2.78 1 0 2 0 99 0 
954 -0.2628448225276736 -0.7209112252210657 0.2822279163630259 83 73 69 0.62 1 0 2 0 3 0 7 0 8 0 10 0 11 0 12 0 13 0 15 0 16 0 
955 -0.36958495742821507 -0.41033139883531433 0.12314315273035614 137 124 112 1.81 2 0 6 0 8 0 10 0 12 0 14 0 15 0 16 0 
956 -1.7062753391219851 -0.918519490257192 -0.3796296651604789 45 53 43 0.86 1 0 2 0 3 0 4 0 
957 -0.0419885723702893 -1.3659111495373402 0.6242508309471322 144 139 131 0.57 1 0 2 0 3 0 4 0 98 0 99 0 
958 -1.5693311692263305 -0.9749847158809961 -0.2888239011673335 57 74 53 0.21 1 0 2 0 4 0 
959 -1.6985113663885592 -0.8963411202167122 -0.38081582527048874 14 23 15 1.54 1 0 2 0 3 0 4 0 
960 -0.18383075657106174 -0.9787392444045919 0.42665552716451216 152 148 141 0.49 0 0 1 0 2 0 99 0 
961 -1.5965307547271774 -0.9513837280540407 -0.30595831209510127 80 85 73 0.91 1 0 2 0 4 0 
962 0.05897005535237421 -1.525715774855963 0.747581320404519 74 67 70 1.05 1 0 3 0 99 0 
963 -1.6999565697138401 -0.863276765329033 -0.3839873073605766 19 29 17 0.22 1 0 3 0 4 0 
964 -0.23636590293379278 -0.843443115651352 0.37688641670042344 114 105 99 1.19 0 0 1 0 2 0 3 0 7 0 8 0 9 0 11 0 12 0 13 0 14 0 15 0 98 0 
965 -1.692480076182605 -0.8961470407535919 -0.36530145729933694 21 29 20 0.79 1 0 2 0 3 0 4 0 
966 -1.7164743909198104 -0.8404504396466523 -0.39494917025708154 11 16 11 0.5 1 0 2 0 3 0 4 0 
967 -1.6961546127079055 -0.8853203398553544 -0.36883612588800574 33 46 33 0.82 1 0 2 0 4 0 
968 -1.710041335456472 -0.860705955490517 -0.379968519534321 10 15 5 0.77 1 0 2 0 3 0 
969 -1.709087694777094 -0.8096696885735077 -0.3864631997021526 14 21 12 0.7 1 0 2 0 3 0 4 0 
970 -0.28184469565751247 -0.6931501200629322 0.352245068076546 82 59 64 0.44 1 0 2 0 3 0 
971 -1.7076774942207804 -0.8231904824488347 -0.378534292922192 13 21 12 0.41 1 0 2 0 4 0 
972 -0.07591006789775245 -1.3731375930432739 0.700144545475803 70 64 56 0.42 1 0 98 0 99 0 
973 -0.294029899664898 -0.6602141423529391 0.34045999895625034 77 58 62 0.97 0 0 1 0 2 0 3 0 7 0 8 0 9 0 10 0 11 0 12 0 13 0 14 0 15 0 16 0 17 0 98 0 99 0 
974 -1.6968151344382132 -0.8858968769027991 -0.3506475807712428 15 21 12 0.22 1 0 3 0 4 0 
975 -0.0002584925683617456 -1.5932424790550221 0.8337031904619341 99 96 99 0.37 1 0 98 0 99 0 
976 -0.17546746440964944 -1.0921892759294163 0.5634842966081579 135 131 122 0.35 1 0 98 0 99 0 
977 -1.71502370012975 -0.8162560779255565 -0.37593489531239976 10 15 8 0.25 1 0 2 0 4 0 
978 -0.2518669040625259 -0.8814820318036938 0.461566623482603 114 105 100 0.37 1 0 3 0 99 0 
979 -1.7125466022624483 -0.855021279987368 -0.3580866513817704 23 30 20 0.17 1 0 3 0 4 0 
980 -0.24119150713707893 -0.9165749167866151 0.4863548097040995 121 120 117 0.82 1 0 3 0 98 0 99 0 
981 -0.3113994691713453 -0.7256144035911312 0.38995905236043227 129 125 125 0.68 0 0 1 0 2 0 98 0 99 0 
982 -0.013375997198876055 -1.6080519894300853 0.8607195887446926 64 57 55 0.36 1 0 98 0 99 0 
983 -0.34907020964412405 -0.5414683369851112 0.31107396718922453 56 38 44 0.39 1 0 2 0 98 0 99 0 
984 -1.738029757507891 -0.7900362704840522 -0.38866869817712657 19 27 15 0.31 1 0 2 0 4 0 
985 -1.7279143330286966 -0.7959692348743685 -0.3789825406148055 13 17 12 0.8 1 0 2 0 3 0 4 0 
986 -1.6560788704167584 -0.8655053923746656 -0.30935778302849215 74 77 70 3.67 1 0 3 0 4 0 
987 -0.31560729305382407 -0.7474614519240537 0.4230739656143092 161 148 137 0.54 1 0 2 0 98 0 
988 -0.2996985310263016 -0.7882623592762483 0.45299163741729487 162 149 139 0.73 1 0 3 0 98 0 99 0 
989 -1.5588927672133168 -0.8691445921770418 -0.24917439787789553 116 108 96 2.0 1 0 2 0 3 0 
990 -0.29280165637111577 -0.826777923056903 0.48788094121842385 132 124 116 0.55 1 0 4 0 99 0 
991 -0.25660074277766975 -0.9905593006789388 0.568884231371851 151 177 197 0.82 1 0 2 0 3 0 4 0 99 0 
992 -0.030687995733717166 -1.7435422513242955 0.9600424505358929 66 63 51 0.3 1 0 2 0 99 0 
993 -1.5662259747630791 -0.9193854038417457 -0.21726178770523097 160 148 136 0.68 1 0 2 0 4 0 
994 -0.31610574945602865 -0.8266841727084888 0.505330652890646 143 133 123 2.64 1 0 3 0 4 0 8 0 99 0 
995 -0.30853399753871913 -0.776022896800828 0.4929925847654486 140 133 126 2.33 1 0 2 0 3 0 4 0 9 0 99 0 
996 -0.36833970904709057 -0.5509563399505881 0.385233542778722 75 47 51 0.79 1 0 2 0 98 0 99 0 
997 -0.20643465361019842 -1.1044838111550557 0.6740296047165995 146 142 135 1.14 1 0 3 0 98 0 99 0 
998 -0.4836326583231967 -0.3226940267841997 0.2533902749891791 156 151 143 0.5 1 0 98 0 99 0 
999 -0.2701325026428232 -2.459794018414426 1.1033069365408168 75 91 93 1.29 1 0 3 0 4 0 6 0 
1000 -0.2892673776261969 -0.9559992154388184 0.5819230301644356 157 165 170 0.66 1 0 4 0 98 0 99 0 
1001 -0.17464274079920283 -1.215724705115756 0.7497355003334173 132 130 122 0.92 1 0 2 0 4 0 8 0 99 0 
1002 -0.20386908415181026 -1.163473388440787 0.716539801777926 151 149 141 0.59 1 0 2 0 3 0 98 0 
1003 -0.36674871552123434 -0.6625019680241544 0.45069088259128454 107 92 91 0.54 1 0 4 0 8 0 99 0 
1004 -0.32808497915617063 -0.7943972317433448 0.5245215752749015 153 146 135 1.07 1 0 3 0 7 0 8 0 9 0 12 0 13 0 98 0 99 0 
1005 -1.5834481150835764 -0.8941301970603612 -0.2159654264728128 115 110 99 0.68 1 0 2 0 4 0 
1006 -0.45403251704640546 -0.4372621453385772 0.33514393058507297 67 46 43 0.84 1 0 3 0 6 0 7 0 8 0 9 0 10 0 12 0 13 0 14 0 15 0 16 0 17 0 
1007 -0.4948315688938296 -2.084914863779119 0.8649726783334174 13 16 13 0.29 1 0 3 0 4 0 5 0 
1008 -0.11590771909350095 -1.6696376246737439 0.9682576630522083 55 57 56 0.26 1 0 2 0 3 0 
1009 -0.5085425467793234 -0.3303586240866849 0.2974828498814276 144 136 124 1.1 1 0 2 0 8 0 13 0 
1010 -0.329031892708596 -0.8401406579799997 0.5753701112700921 152 150 148 0.34 1 0 98 0 99 0 
1011 -0.36505371279478127 -0.7322263829918152 0.515126994295992 154 152 145 0.39 1 0 3 0 99 0 
1012 -0.27784957628228146 -1.0441892546605749 0.6785657851307603 119 116 110 0.55 1 0 98 0 99 0 
1013 -1.4744578137866207 -0.7249349360577908 -0.184346663552462 163 166 155 0.82 1 0 2 0 3 0 
1014 -0.4170754229027531 -0.4907444567764141 0.4219784445368999 42 30 33 1.8 1 0 2 0 3 0 4 0 7 0 8 0 9 0 98 0 99 0 
1015 -1.4924086173810955 -0.7359836654992018 -0.1752684357847878 59 46 33 0.53 1 0 2 0 3 0 
1016 -0.6151766171308919 -1.0764011296267813 0.5048525018514821 119 127 134 2.83 1 0 4 0 8 0 
1017 -0.35894612586037566 -0.6853352580760099 0.559322322565553 145 150 147 2.98 1 0 4 0 6 0 
1018 -0.5364873033524415 -0.3443737249690899 0.3413353304191993 164 163 156 0.46 1 0 2 0 3 0 99 0 
1019 -1.6646809941175678 -0.6787559283624978 -0.29478504045255427 29 29 28 0.52 1 0 2 0 3 0 4 0 
1020 -1.4954134606866523 -0.7216538663540604 -0.16986014034273977 90 90 79 1.3 1 0 2 0 3 0 
1021 0.08999064622037745 -2.5219309505524174 1.4869235081759893 53 67 63 1.21 1 0 2 0 3 0 
1022 -1.5156982918556656 -0.6850567912707131 -0.1894078341909884 175 169 158 0.6 1 0 2 0 3 0 4 0 
1023 -0.42813605953296907 -0.5026340107873954 0.5039749985857284 69 43 46 0.73 1 0 3 0 4 0 
1024 -1.5199113118129437 -0.6764970258381189 -0.17840200629943181 79 90 85 0.41 1 0 2 0 4 0 
1025 -0.012829935889063115 0.995234773986931 0.3506969357059756 52 50 56 1.43 1 0 3 0 5 0 
1026 -0.7060602030254877 -1.0875776897931393 0.5116426779028846 160 166 181 1.34 1 0 2 0 3 0 5 0 6 0 8 0 
1027 -0.7569123422606856 -0.9844303010188404 0.4466217047079326 77 81 96 0.65 0 0 1 0 2 0 3 0 4 0 5 0 6 0 7 0 8 0 9 0 10 0 11 0 12 0 98 0 99 0 
1028 -0.2793007957473652 0.8715717265062701 0.2319385173934272 49 41 42 0.67 1 0 2 0 3 0 4 0 
1029 -0.6866072630678239 -0.9053585081236 0.4852198536684622 136 139 155 0.58 1 0 4 0 7 0 12 0 14 0 
1030 -0.40990276338345577 -0.7343040263158715 0.6278713241568538 82 77 72 1.42 1 0 2 0 3 0 4 0 5 0 6 0 7 0 8 0 9 0 10 0 12 0 14 0 15 0 
1031 -0.44857007822143347 -0.619808889985414 0.570419070878967 87 69 68 0.24 1 0 3 0 9 0 
1032 -0.7174247375392826 -1.1390777628253625 0.5549041371633556 94 14 21 0.85 0 0 1 0 2 0 3 0 4 0 5 0 6 0 7 0 98 0 99 0 
1033 -0.7342707555912094 0.20397221120012765 0.14438414174957992 132 106 106 1.13 1 0 4 0 7 0 98 0 
1034 -0.42606771763489704 -0.6746051242242144 0.6261507298978934 140 139 129 0.82 1 0 3 0 4 0 
1035 -0.44739192525338556 -0.6984347129235788 0.6181165244027728 96 95 91 1.3 1 0 3 0 4 0 5 0 8 0 
1036 -0.14910778015672022 0.9520016111028562 0.3529647878515406 30 29 34 0.75 1 0 2 0 3 0 4 0 5 0 
1037 -0.29568506359670077 -1.1741751996166976 0.9008465099981579 91 83 77 0.83 1 0 2 0 3 0 
1038 -0.11876984322262785 -1.5666484627385808 1.1607171143127235 45 48 53 2.74 1 0 3 0 4 0 5 0 7 0 
1039 -0.5693467239216254 -1.9697391999204859 0.9728466768221632 10 15 13 1.51 0 0 1 0 2 0 3 0 4 0 6 0 
1040 -0.2502309282837827 -1.4231185227364869 1.027427025152373 62 77 79 3.27 0 0 1 0 2 0 3 0 
1041 -0.19270919318311086 0.9519719842142824 0.3703300424870326 21 16 16 0.59 1 0 2 0 3 0 4 0 
1042 -0.7907001175034678 -0.9648315498745939 0.4987925096944985 74 80 92 0.59 1 0 2 0 3 0 5 0 9 0 13 0 98 0 99 0 
1043 -0.7604855901208285 -0.9335233110323324 0.5117102113538519 157 167 186 1.51 1 0 2 0 3 0 4 0 5 0 7 0 10 0 
1044 -0.2532824260549569 0.9498755946567178 0.3471640502608466 51 35 34 0.68 1 0 2 0 3 0 
1045 -0.7983499689162545 -0.9601509908385011 0.5118217138248404 49 53 68 0.85 0 0 1 0 2 0 3 0 4 0 6 0 7 0 9 0 
1046 -0.7236787045693058 -0.3384819458414481 0.3840387078948627 76 73 55 3.29 1 0 3 0 4 0 7 0 10 0 
1047 -0.805103982911038 -0.9560887331350658 0.5204024465195403 25 26 36 0.59 0 0 1 0 2 0 3 0 9 0 
1048 -0.6192807150312498 -0.3963826149947106 0.49274884662825447 108 100 92 1.99 1 0 2 0 3 0 99 0 
1049 -0.4123427098942991 0.6941015922698227 0.3384678108922151 151 134 135 0.66 1 0 2 0 3 0 4 0 5 0 6 0 7 0 8 0 
1050 -0.4232354109658145 0.8170261878909519 0.29358299400602983 116 99 99 0.72 1 0 2 0 4 0 
1051 -0.8189359773551976 -0.9494559135115506 0.5400171793091384 31 36 48 0.44 1 0 3 0 4 0 6 0 8 0 99 0 
1052 -0.6776644789721886 -1.7652783307318816 0.9208762723673719 33 54 25 0.96 1 0 2 0 3 0 4 0 5 0 6 0 7 0 
1053 -0.6722501223564106 -0.40839567149596 0.505156049585568 57 68 65 1.09 1 0 2 0 3 0 99 0 
