# 3D point list with one line of data per point:
#   POINT3D_ID, X, Y, Z, R, G, B, ERROR, TRACK[] as (IMAGE_ID, POINT2D_IDX)
# Number of points: 473, mean track length: 4.04
629 0.4842162319252491 0.06900748016452554 0.025291634554845732 47 45 45 0.79 74 0 75 0 76 0 82 0 
630 0.5273106036297748 -0.4900084225492328 0.23321452542416976 53 68 58 0.51 74 0 75 0 76 0 
631 0.7237921298123744 0.09228548154576696 0.01902866486242072 130 128 129 0.19 74 0 76 0 77 0 
632 0.9386385682017164 0.07780069148628063 0.037662634051088606 136 128 123 0.73 74 0 75 0 76 0 77 0 
633 0.6876500294962186 0.08702211632732196 0.04678077479053222 133 131 132 1.59 74 0 75 0 76 0 
634 0.20172490563084167 0.08437269986544302 0.009005335630847267 116 118 130 0.21 74 0 75 0 79 0 
635 0.47225123564496896 -0.35364609577103545 0.13685564669049555 105 109 108 1.92 74 0 75 0 76 0 
636 -1.4209435947112716 0.12310900084819967 -0.0030866675501202145 65 65 78 0.37 74 0 75 0 76 0 
637 -1.6581738549767833 -0.16444994607414742 0.08414922694049265 83 76 58 0.99 74 0 75 0 76 0 77 0 
638 0.23591432621981234 -0.7235811029040627 -0.7322758596987269 57 63 26 0.92 74 0 75 0 76 0 
639 0.38006056515090914 0.07970766689434514 0.036033658792153034 118 119 122 0.25 74 0 75 0 76 0 
640 -1.2803972185596222 0.125412455735761 -0.021255146088047905 160 153 149 0.25 74 0 79 0 80 0 
641 0.7681839018631134 -0.14946140429846833 0.09424630360054476 118 111 104 0.28 74 0 75 0 76 0 
642 0.3711641232582139 0.13337238472460802 0.03837981716658723 151 149 148 0.61 74 0 75 0 76 0 
643 0.40490992920253077 -0.5584317986515673 0.1865727650265172 42 38 34 1.95 74 0 75 0 76 0 77 0 
644 0.3897296342961043 -0.917379326541511 -0.35686074119492694 64 53 44 4.41 74 0 75 0 76 0 
645 -1.6901788284378245 0.2146276663937812 0.0048722023711360585 141 177 194 0.31 74 0 75 0 76 0 77 0 78 0 
646 -4.414603254524369 1.667798727992816 0.44668385758448315 188 177 172 1.02 74 0 75 0 79 0 
647 0.8104872513352439 -0.2646110320249224 0.13718031096702976 115 115 114 0.84 74 0 75 0 77 0 
648 -4.173114344267825 1.5551869323610379 0.4242485736078876 252 255 255 1.01 74 0 75 0 79 0 
649 -0.4674625846867601 0.49399646379418083 -0.1478143483488985 120 125 129 2.42 74 0 76 0 78 0 80 0 82 0 
650 0.37366217400324486 -0.9513326937292637 -0.5164584256568467 129 119 110 3.1 74 0 75 0 76 0 
651 1.0611827250786146 -0.05104432143178399 0.08224133403038403 151 145 141 1.63 74 0 75 0 76 0 
652 0.5693489055183982 -0.07965912661830109 0.06237066360197341 149 150 153 0.55 74 0 75 0 76 0 
653 0.3562839291859231 0.43854270786708716 -0.055721303336014216 155 155 142 1.82 74 0 76 0 78 0 
654 0.7232908228055539 0.03400580541596751 0.034285212695432055 106 102 106 0.41 74 0 75 0 76 0 77 0 
655 0.41187495668990004 -0.37631231498207496 0.13560493175589405 78 78 77 0.45 74 0 75 0 76 0 
656 0.7012857187143111 -0.2367022066201573 0.12169651914363078 63 54 56 0.44 74 0 75 0 76 0 
657 0.3893525707580874 -0.1693215801121246 0.054476895604907316 105 106 106 1.25 74 0 75 0 76 0 
658 0.9997353164370006 0.03510620964392999 0.03794349498626248 58 70 90 0.38 74 0 75 0 76 0 
659 -1.8762660697050544 0.27857783379623646 -0.10782751845310257 63 61 66 0.21 74 0 75 0 76 0 
660 0.22995801289764506 -0.8909526079570695 -0.3728270574682755 78 100 68 0.59 74 0 75 0 76 0 
661 0.06302069803499605 0.44277036432592076 -0.07033736853223171 40 37 44 0.47 74 0 75 0 82 0 
662 0.3712581604642209 0.2560338326522765 0.013997495085263711 143 150 153 1.22 74 0 75 0 76 0 
663 0.42232592814061753 0.22662275530894974 -0.009719262120766015 109 106 85 0.75 74 0 75 0 76 0 77 0 
664 0.47216571361222437 -0.007583457717508124 0.044535023929207274 148 139 138 0.59 74 0 75 0 76 0 
665 0.6118390476840103 -0.003898954322665585 0.04399190383839624 136 134 130 0.64 74 0 75 0 76 0 
666 0.7983739353357104 -0.2310648058869321 0.1057092245905098 95 90 83 1.14 74 0 75 0 77 0 
667 0.8276756570454742 -0.19536805825169498 0.11031518487043579 98 98 97 0.86 74 0 75 0 76 0 77 0 
668 1.0358709481470294 0.0021626882365703287 0.057417181138117 111 116 113 0.03 74 0 75 0 76 0 
669 0.5515610940006781 -0.05723366775750491 0.048886244376419974 111 105 105 0.68 74 0 75 0 76 0 77 0 
670 0.6901817132742116 -0.04554562724495072 0.06605964052144575 122 119 121 1.24 74 0 75 0 76 0 
671 -0.647686812123874 0.3138479104678483 -0.03574111096220056 111 131 150 1.07 74 0 75 0 77 0 
672 -0.4234581221587866 0.3906737944952253 -0.07380826424323672 141 131 132 0.66 74 0 75 0 76 0 77 0 78 0 79 0 80 0 82 0 
673 0.4081315148280228 0.3454173759534013 -0.007167441656136475 61 57 65 0.9 74 0 75 0 76 0 77 0 
674 -0.661338004865915 0.4234317434287148 -0.0843917125757665 138 122 117 0.47 74 0 75 0 76 0 77 0 78 0 79 0 80 0 82 0 
675 -0.02312521034619791 0.2982321991869771 -0.034612697633975564 160 186 192 3.87 74 0 75 0 76 0 80 0 
676 0.48204043384244866 -0.4331932053164226 0.17545663139355794 105 118 95 1.68 74 0 75 0 76 0 
677 0.6684006099327089 -0.12046700765996501 0.08491446380230405 120 92 95 0.31 74 0 75 0 76 0 77 0 
678 0.6560479685726066 -0.12719294229878533 0.07548545370518145 87 66 69 1.04 74 0 75 0 76 0 77 0 
679 0.4809674243632963 -0.5023461846483536 -0.5172531059134942 97 98 99 0.72 74 0 75 0 76 0 
680 0.8639286642368367 -0.2539701136782088 0.10659372674057233 116 112 107 0.48 74 0 75 0 76 0 77 0 
681 0.48775791330948626 -0.03079075109017923 0.08059717328079818 137 133 131 0.64 74 0 75 0 76 0 
682 1.0163423440056167 -0.13654791695083768 0.08559819829785509 70 56 55 0.65 74 0 75 0 76 0 
683 0.849996641332869 0.23462696192066276 -0.010207319466920328 70 60 68 0.96 74 0 75 0 76 0 77 0 
684 -1.4268236382549633 0.34512524720479254 -0.10626083090606686 80 86 89 0.48 74 0 76 0 77 0 78 0 79 0 80 0 
685 -0.8324484949261193 0.44866546053176803 -0.0872660177727469 59 70 78 0.79 74 0 75 0 76 0 78 0 80 0 
686 -3.1054253564154584 1.1605525711492788 0.5051360870141006 204 219 228 3.09 74 0 75 0 76 0 79 0 
687 0.48385101135925757 -0.007355407994458191 0.042814031511670514 160 158 155 0.95 74 0 75 0 76 0 82 0 
688 0.5717556935271562 0.2586606642761372 0.03232636287821666 121 147 161 2.97 74 0 76 0 77 0 
689 0.5050064780107287 0.39105723306340057 0.00611335166055893 150 186 202 0.54 74 0 75 0 76 0 
690 0.8499922944044929 0.19618484727635974 -0.006206831769202115 142 142 145 0.16 74 0 76 0 77 0 
691 0.14566009453984707 0.22326329409321657 -0.01835702280453333 140 137 136 0.75 74 0 75 0 79 0 82 0 
692 0.3934469475150115 -0.26361192845195436 0.11307272822187064 121 122 121 0.71 74 0 75 0 76 0 
693 0.8430592928142335 0.16160447608791165 0.0020481479168736882 97 100 112 0.3 74 0 76 0 77 0 
694 -0.009815059323388553 -0.9970402629989691 -0.5019296437737042 123 148 138 0.56 74 0 75 0 76 0 
695 0.6655317952894523 0.06776897107575233 0.021470018775868738 111 107 105 0.3 74 0 75 0 76 0 77 0 
696 -1.6607009777552058 0.1327455238976364 0.01209543156590387 146 181 202 0.36 74 0 75 0 76 0 77 0 78 0 79 0 
697 0.404696863058163 0.06977390046866996 -0.003283319707980681 137 136 133 1.47 74 0 75 0 76 0 
698 0.2682097794727303 0.5445228957598703 -0.13902850464384198 79 92 94 0.52 75 0 77 0 82 0 
699 0.15965382733970435 0.5564613068869753 -0.11464630887357874 96 111 113 1.35 75 0 76 0 77 0 82 0 
700 0.2586525305732309 0.492940526615276 -0.15552576590361822 118 118 107 1.15 75 0 76 0 77 0 
701 0.10937279961659702 0.5484015342957919 -0.11474676672062101 71 86 90 0.46 75 0 76 0 77 0 80 0 82 0 
702 -0.2852582954216039 0.5429171917093594 -0.1673090499611276 75 72 75 0.52 75 0 76 0 77 0 80 0 82 0 
703 0.2520376033552425 0.5074696048043326 -0.10711251405591371 72 71 76 0.49 75 0 76 0 77 0 82 0 
704 0.11371128106700268 0.5295378948518374 -0.1065851272830014 109 100 94 0.52 75 0 76 0 77 0 80 0 
705 -0.02894655148845393 0.5338452933605645 -0.10967969941181677 68 69 67 1.36 74 0 75 0 76 0 77 0 80 0 82 0 
706 0.3146134123051333 0.5096098540824636 -0.07588215803466625 170 159 141 0.85 75 0 76 0 77 0 
707 -0.09808992755702431 0.5214013546345039 -0.11149349381484086 56 50 54 0.29 75 0 76 0 77 0 82 0 
708 -0.5286668466779192 0.4859497440296857 -0.218737578141873 74 79 92 1.26 75 0 76 0 77 0 
709 0.051899843360653175 0.5020483808516567 -0.10346677967736584 117 102 95 0.69 75 0 76 0 77 0 79 0 80 0 82 0 
710 0.03390860894390796 0.5012362680121478 -0.10257296862798881 121 106 98 0.48 75 0 76 0 77 0 79 0 80 0 82 0 
711 -0.13030914156084877 0.5205359665115381 -0.10909668442399356 55 55 58 0.6 75 0 76 0 77 0 79 0 82 0 
712 0.21326734929742153 0.47813400252647265 -0.09455412325932722 110 108 95 0.22 75 0 78 0 79 0 
713 -0.17361657071331818 0.517772683884304 -0.10655612717825624 78 73 60 1.26 74 0 75 0 76 0 77 0 78 0 79 0 80 0 82 0 
714 0.11699477078320653 0.4824964866648763 -0.09591786955797676 137 126 116 0.54 75 0 76 0 77 0 78 0 79 0 82 0 
715 -0.03340994256295221 0.49220360697504995 -0.10116593426272269 132 123 114 0.63 75 0 76 0 77 0 78 0 79 0 80 0 82 0 
716 0.8384408778049679 0.4212784836761324 -0.06292628520981536 152 149 151 0.44 75 0 76 0 77 0 
717 -0.05878305587185895 0.48898419964414597 -0.10058384651668462 137 126 117 0.64 75 0 76 0 77 0 78 0 79 0 80 0 82 0 
718 -0.07766526198738205 0.48759261651694685 -0.10110833953606191 109 89 85 0.58 75 0 76 0 77 0 78 0 79 0 80 0 82 0 
719 0.12074091649489616 0.469822611913974 -0.09086555261144369 141 130 122 0.71 75 0 76 0 77 0 79 0 82 0 
720 0.01038527286541624 0.4917727374072294 -0.08351076986194306 140 122 115 1.11 75 0 76 0 77 0 78 0 82 0 
721 -0.13426366639886123 0.4811517811619883 -0.10226246660520877 126 120 121 0.4 75 0 76 0 77 0 78 0 79 0 82 0 
722 -3.877638379086791 1.4626392623609807 0.4002339179905867 248 244 245 1.27 75 0 76 0 78 0 
723 0.8235502712625995 0.40411750453863593 -0.06101829740289544 116 111 103 0.88 75 0 76 0 77 0 
724 0.7368931276045916 0.4187577487548352 -0.04979215386325242 145 147 134 0.59 75 0 76 0 77 0 
725 0.0924653568646881 0.4533196304962034 -0.0871790414582363 128 120 122 0.58 75 0 76 0 77 0 78 0 79 0 
726 -0.020573996728726285 0.4572160195273498 -0.09340386431212044 143 129 122 0.6 75 0 76 0 77 0 78 0 79 0 80 0 
727 0.8745984819129864 0.4007702353935113 -0.05014777346080068 135 135 134 0.52 75 0 76 0 77 0 
728 0.13638122479988607 0.4443032332307615 -0.08456285861162272 89 99 111 0.38 75 0 76 0 77 0 78 0 79 0 82 0 
729 -0.0823859810213185 0.4617002248932036 -0.09209148351798113 132 109 104 0.34 75 0 76 0 77 0 78 0 79 0 80 0 82 0 
730 -0.1046227203037633 0.46979415927097234 -0.0878828013237225 134 120 116 0.97 75 0 77 0 79 0 82 0 
731 0.850957977022762 0.39859072730655976 -0.04951281848794231 123 121 121 0.95 75 0 76 0 77 0 
732 0.07078062233745602 0.4469116576961466 -0.08589145096206074 95 97 93 0.62 74 0 75 0 76 0 77 0 78 0 79 0 80 0 82 0 
733 -0.049197698572979676 0.45662543802918243 -0.09330333665276802 131 119 112 0.58 75 0 76 0 77 0 78 0 79 0 80 0 
734 -0.06634056083721346 0.45509353164747124 -0.09411549563950272 128 117 119 0.79 75 0 76 0 77 0 78 0 79 0 80 0 
735 0.15122633443720823 0.43752874064467584 -0.07577937068961971 138 140 151 0.52 75 0 76 0 77 0 78 0 82 0 
736 0.09330244053698739 0.43696549916529615 -0.08249950127257577 132 114 108 0.44 75 0 76 0 77 0 78 0 79 0 80 0 82 0 
737 0.03403794627179474 0.4492713612305622 -0.08073631720446661 101 89 87 1.81 75 0 76 0 77 0 78 0 79 0 80 0 82 0 
738 0.4009142442424376 0.42620723826651397 -0.05718217793602731 92 80 78 1.62 75 0 76 0 77 0 78 0 82 0 
739 0.810085130572815 0.391682473416584 -0.048475152466574745 149 142 143 0.41 75 0 76 0 77 0 
740 0.009076939846413057 0.44242532753467456 -0.0839412856576951 82 77 79 0.77 75 0 76 0 77 0 78 0 79 0 80 0 82 0 
741 -0.1221367471537056 0.46311363484700696 -0.07901702997748172 150 139 130 2.28 75 0 77 0 78 0 79 0 82 0 
742 0.8703225649439343 0.38014301864759137 -0.05052545867006497 155 159 165 0.45 75 0 76 0 77 0 
743 0.7716720018943632 0.3860679018815256 -0.053077427804792965 141 140 143 0.24 75 0 76 0 77 0 
744 0.7242615628195288 0.38326834118670006 -0.06169337276522624 70 92 108 0.46 75 0 76 0 77 0 
745 -0.49381878432048415 0.4753909258713154 -0.10490576336698654 49 51 58 0.7 75 0 76 0 77 0 78 0 79 0 80 0 82 0 
746 0.7098465592062677 0.38190262839649713 -0.05926031183283342 85 79 85 0.69 75 0 76 0 77 0 
747 0.12024572464617 0.425497270351063 -0.07797966737642259 157 153 152 0.93 75 0 76 0 78 0 79 0 80 0 
748 0.7919823495783027 0.37142861809618866 -0.04701139942436727 148 152 156 0.49 75 0 76 0 77 0 
749 -0.3951856748341207 0.45493118129772925 -0.09287192921286236 116 103 100 0.3 75 0 76 0 77 0 78 0 79 0 80 0 82 0 
750 0.8472461422007331 0.3569915725268521 -0.050310042788668685 128 123 120 0.46 75 0 76 0 77 0 
751 0.140663064378437 0.3966451764483302 -0.07070166062070138 158 155 154 0.47 75 0 76 0 77 0 78 0 79 0 
752 0.7184024328526348 0.36673980274647355 -0.0446754513625498 140 138 137 1.2 75 0 76 0 77 0 
753 0.6298464343848499 0.36793797125716043 -0.04784455531180676 45 46 59 0.53 75 0 76 0 77 0 
754 0.792626350882011 0.3542801575234801 -0.04781189337544367 150 155 163 0.49 75 0 76 0 77 0 
755 0.5513593639634146 0.40339155793238657 -0.009697671528142493 190 196 181 3.12 75 0 76 0 77 0 82 0 
756 0.1828050034989115 0.38454581892900985 -0.07047025604291113 144 138 134 0.84 75 0 76 0 77 0 78 0 79 0 
757 -0.2185906217728849 0.4131734636710329 -0.08222660515710789 161 152 151 0.29 75 0 76 0 77 0 82 0 
758 -0.1453727130189955 0.41827409851936115 -0.06430389484856613 39 31 35 0.83 74 0 75 0 76 0 77 0 78 0 79 0 80 0 82 0 
759 -0.392816510021497 0.4243846247240325 -0.08677504608460795 145 133 132 0.93 75 0 76 0 77 0 78 0 79 0 80 0 82 0 
760 0.2671058172370948 0.3670800932754015 -0.0718583248575646 98 92 88 0.64 75 0 76 0 77 0 79 0 82 0 
761 0.15940309342468933 0.376304774261224 -0.07289301828292416 172 169 165 0.94 75 0 77 0 78 0 79 0 
762 0.11560399278913713 0.3867423257068555 -0.05748708939485203 146 128 115 1.95 75 0 76 0 77 0 78 0 79 0 80 0 82 0 
763 -0.4224061431557375 0.4176140702959088 -0.0860482844580539 159 141 134 0.43 75 0 77 0 78 0 82 0 
764 0.6316753730794119 0.3527826214176397 -0.04276298857231442 39 44 59 0.31 75 0 76 0 77 0 
765 0.4245703615787946 0.3898566640959834 -0.0211098896124593 155 164 179 0.62 75 0 76 0 77 0 
766 -0.5834012072377505 0.43163932720157816 -0.08809255181807885 124 113 110 1.33 74 0 75 0 76 0 77 0 78 0 79 0 80 0 
767 0.381309565082498 0.36122426051058865 -0.04593140223366632 157 148 140 2.6 75 0 76 0 82 0 
768 0.654378067892352 0.3396575564804132 -0.043504056511193934 160 150 147 0.16 75 0 76 0 77 0 
769 0.7424612759248297 0.3135350346230096 -0.06222285861054866 136 133 106 0.22 75 0 76 0 77 0 
770 0.6324589737622457 0.3427103894353829 -0.03904978597318909 43 42 56 0.35 75 0 76 0 77 0 
771 0.7996704332853906 0.32702758106704743 -0.03594983569261645 156 153 153 0.19 75 0 76 0 77 0 
772 0.780717791180763 0.32589989273517905 -0.03511852692405837 154 153 153 1.08 75 0 76 0 77 0 
773 0.148886641267707 0.34813831878921087 -0.06433070213604841 130 139 146 0.28 75 0 76 0 77 0 78 0 79 0 
774 0.8275805821745794 0.3122411067659835 -0.041078087518765294 149 150 151 0.52 75 0 76 0 77 0 
775 0.6766114345424105 0.3359756085626222 -0.01979397219876189 125 123 120 1.3 75 0 76 0 77 0 
776 0.16866872773600305 0.3415042041770615 -0.05643481893841429 155 153 152 0.58 75 0 76 0 77 0 78 0 79 0 82 0 
777 -1.4199449709270104 0.39995291056787563 -0.18104827436341386 93 94 103 0.69 75 0 76 0 77 0 78 0 
778 0.4904715720094628 0.34960261759300104 -0.008489803253394435 173 187 203 0.59 75 0 76 0 77 0 82 0 
779 0.31456437652840785 0.3347207475577588 -0.042451755113622536 144 138 135 0.16 75 0 76 0 77 0 
780 0.8446665531044795 0.3086015760538511 -0.028268527062354387 126 120 120 0.36 75 0 76 0 77 0 
781 -0.28436210858904437 0.36319980944433894 -0.06545654844491589 169 159 154 0.42 75 0 77 0 78 0 79 0 82 0 
782 -0.39536224345472576 0.3676016314895997 -0.07150931303071673 125 117 131 0.42 75 0 76 0 77 0 78 0 79 0 80 0 82 0 
783 -0.5229356211937332 0.38905072605670654 -0.06562631490294768 82 76 81 1.68 75 0 76 0 77 0 78 0 79 0 80 0 82 0 
784 -3.2044300866605515 1.110533648341709 0.4940700506260063 212 196 193 0.6 75 0 76 0 77 0 
785 0.5315889622129318 0.3584870640371248 0.009550785703140718 91 112 128 0.55 75 0 76 0 77 0 82 0 
786 0.10780135914926492 0.3367175755408237 -0.052113732903553256 133 124 122 1.37 75 0 76 0 77 0 78 0 79 0 80 0 82 0 
787 0.7456841602422275 0.29271081868996474 -0.04724695000826573 155 153 153 0.44 75 0 76 0 77 0 
788 0.6365992969340282 0.3150056546883312 -0.02813500916159617 39 42 54 0.52 75 0 76 0 77 0 
789 -3.2676700742854536 1.0745382077036956 0.462429844546806 219 228 223 0.72 75 0 78 0 79 0 
790 0.8092701795921928 0.2917752664873461 -0.03939276262522595 140 143 145 0.37 75 0 76 0 77 0 
791 0.24896954138116978 0.32142062729839604 -0.04774033546280476 154 146 142 0.6 75 0 76 0 82 0 
792 -0.7634538481655266 0.3841005590718596 -0.0782221667744265 131 122 121 0.63 75 0 76 0 77 0 78 0 79 0 80 0 82 0 
793 0.7989091712998437 0.29545829700527504 -0.03153618697838789 132 131 130 0.22 75 0 76 0 77 0 
794 0.6883492632959246 0.3019877326990189 -0.031410278462671304 136 138 138 0.16 75 0 76 0 77 0 
795 0.33453712912139144 0.31582865464427556 -0.04244856144346887 145 140 136 0.47 75 0 76 0 82 0 
796 -0.03148550907512493 0.36066819316177434 -0.022953949899755077 113 135 156 1.53 75 0 76 0 78 0 79 0 80 0 82 0 
797 -0.26749638467377845 0.3483083756363924 -0.06290403384894638 167 153 147 0.51 75 0 77 0 82 0 
798 0.7747529137393732 0.28514845182675774 -0.041417498495186056 129 124 119 0.47 75 0 76 0 77 0 
799 0.5819343923287567 0.34501425530282104 0.01424260058582938 68 84 97 0.35 75 0 76 0 77 0 
800 0.7560369530088371 0.29111935112342713 -0.031065534359977942 129 128 125 0.34 75 0 76 0 77 0 
801 0.08520293678862656 0.319557465662871 -0.05065266571711291 93 95 102 0.61 75 0 76 0 78 0 79 0 
802 -0.33672635765411657 0.3377200458828653 -0.06504603432798328 158 154 154 0.43 75 0 77 0 79 0 
803 0.7312190799241038 0.28712869414842856 -0.031502609372322965 138 137 137 0.41 75 0 76 0 77 0 
804 0.8243172095146825 0.2801737094715715 -0.031121502236985954 132 135 136 0.57 75 0 76 0 77 0 
805 0.7116932473341544 0.28583606150446084 -0.031579710545645234 138 136 135 0.73 75 0 76 0 77 0 
806 -0.6791664424810835 0.363945163346756 -0.05845298116983111 45 39 41 0.97 75 0 76 0 77 0 82 0 
807 0.6908318497726472 0.2842266604523416 -0.03101277962374427 119 116 118 0.18 75 0 76 0 77 0 
808 0.20540152311776028 0.30056359090728013 -0.04415647229392761 150 147 145 0.27 75 0 77 0 82 0 
809 -0.8493880031909621 0.36167785375750516 -0.07609597931814216 181 180 180 0.13 75 0 76 0 78 0 
810 0.7592415527924516 0.271208981904279 -0.035642386513010216 136 134 134 0.43 75 0 76 0 77 0 
811 -0.16390460924767683 0.3134550250927213 -0.054913504400155855 177 171 169 0.28 75 0 77 0 78 0 79 0 
812 -1.1254819567224343 0.37717385123994585 -0.08085997565642122 131 119 112 0.57 75 0 76 0 77 0 78 0 79 0 80 0 82 0 
813 -1.4110425372985145 0.3689068119595571 -0.11790650246515266 118 113 113 0.73 75 0 76 0 77 0 78 0 79 0 80 0 
814 0.84641636200025 0.2771845624564936 -0.01634718924864531 154 158 162 0.61 75 0 76 0 77 0 
815 0.7171847717390134 0.2700934134898374 -0.029973662035542414 143 139 139 0.43 75 0 76 0 77 0 
816 0.8241708530762719 0.2664833008842168 -0.02581599719693095 138 139 141 0.19 75 0 76 0 77 0 
817 0.1070611193068517 0.29470609787130664 -0.04038452105638113 164 163 160 0.91 75 0 77 0 79 0 82 0 
818 0.802712025894774 0.26895646169930265 -0.02135625834302557 125 123 116 0.31 75 0 76 0 77 0 
819 -0.23112117279282055 0.30890890767545254 -0.051276136766849945 179 169 166 0.52 75 0 77 0 78 0 82 0 
820 0.8837715812895413 0.2639883807689035 -0.01849518251495441 136 134 134 0.29 75 0 76 0 77 0 
821 0.6717076471100498 0.2646573894076004 -0.030392857501895243 132 126 126 0.72 75 0 76 0 77 0 
822 -1.184713922608815 0.3459847262904081 -0.09006479073982598 128 113 111 1.86 75 0 76 0 77 0 78 0 79 0 80 0 82 0 
823 0.7500956241552177 0.2599933436265458 -0.022222511437698156 143 133 132 0.44 75 0 76 0 77 0 
824 -0.8984740335467143 0.34134540077446895 -0.060998059048176234 156 138 137 0.67 75 0 77 0 78 0 79 0 82 0 
825 -0.13118931755483051 0.3033393869287998 -0.027502527539768895 79 79 97 1.3 75 0 76 0 78 0 79 0 80 0 82 0 
826 0.8190115949148651 0.2521016690073985 -0.022480219836191306 137 133 130 0.44 75 0 76 0 77 0 
827 0.7296760548212666 0.25673266599812994 -0.021473066812197406 152 148 148 0.43 75 0 76 0 77 0 
828 -0.9275112495250544 0.33129149835671456 -0.06659994718261242 166 148 142 0.78 75 0 76 0 77 0 78 0 79 0 80 0 82 0 
829 0.8030596361526303 0.2554361662455681 -0.01668822710642992 132 130 128 0.44 75 0 76 0 77 0 
830 -0.423831816016106 0.29638740117142803 -0.05333649700603171 165 156 154 0.37 75 0 76 0 77 0 78 0 79 0 80 0 82 0 
831 -0.741007670821407 0.31041059826927897 -0.06048118283048831 157 148 146 0.56 75 0 76 0 77 0 78 0 79 0 80 0 82 0 
832 0.8643870968984553 0.2472825707737489 -0.012564228722843573 145 144 139 0.45 75 0 76 0 77 0 
833 0.6641158663243039 0.24544617648424963 -0.027114059282935532 141 140 142 0.36 75 0 76 0 77 0 
834 0.10797015063201976 0.25942459491493186 -0.03615484264943847 161 160 117 0.25 75 0 77 0 79 0 
835 0.8201145660526912 0.2369794622062976 -0.01696498925645029 135 133 135 0.5 75 0 76 0 77 0 
836 -1.3252214731315572 0.3299708901439635 -0.06921066665327924 144 127 125 0.46 75 0 78 0 79 0 
837 -1.0014810999035615 0.30977029067953454 -0.059891133759373716 91 75 82 0.42 75 0 76 0 77 0 78 0 79 0 80 0 
838 -0.6862666597035924 0.293767826891037 -0.046202525903309866 111 105 107 2.06 75 0 76 0 77 0 78 0 79 0 80 0 82 0 
839 0.8775996784476761 0.22896443728093843 -0.014142573442042838 148 148 152 0.14 75 0 76 0 77 0 
840 0.7567978696577933 0.22817664805390145 -0.02153207996719786 120 113 108 0.49 75 0 76 0 77 0 
841 0.1297629237132471 0.255100616307394 -0.021751081774085357 143 140 140 0.43 75 0 79 0 82 0 
842 -0.1192646322286729 0.287477762078199 0.006222521169932271 123 144 162 1.58 75 0 78 0 79 0 
843 -0.9115423302809897 0.2899993395537457 -0.056924027088447016 170 159 156 0.46 75 0 76 0 77 0 78 0 79 0 80 0 82 0 
844 0.09133108016032404 0.2428982163173871 -0.029670218576681062 108 111 123 0.23 75 0 77 0 82 0 
845 0.8110701969910719 0.2176662140493603 -0.018918134867248693 98 93 89 0.13 75 0 76 0 77 0 
846 -1.229312531902459 0.3026354570564611 -0.056734274831506504 83 87 96 0.4 74 0 75 0 76 0 77 0 78 0 79 0 80 0 82 0 
847 0.6620237965133186 0.22464132602824613 -0.006748570838657653 151 151 153 0.27 75 0 76 0 77 0 
848 0.12517042703544257 0.2356206924200784 -0.02162593421584802 153 139 131 2.28 75 0 79 0 82 0 
849 0.7699657151919552 0.2180478478069323 -0.0072874169451284665 121 138 141 0.19 75 0 76 0 77 0 
850 0.8576348400586198 0.21205730305426804 -0.008395204507830822 145 144 144 0.65 75 0 76 0 77 0 
851 -0.7210572086176316 0.25355107606592153 -0.04263580002070855 162 156 158 0.44 75 0 76 0 77 0 78 0 79 0 80 0 82 0 
852 -0.9940831954709101 0.2609719747298016 -0.05279496278147633 140 130 134 1.43 74 0 75 0 77 0 78 0 79 0 82 0 
853 -0.2649460964328295 0.23296210485423904 -0.027678656320139883 175 160 153 0.49 75 0 77 0 78 0 82 0 
854 0.6489399277569808 0.20952723983973695 0.0008260894952161202 42 47 58 0.32 75 0 76 0 77 0 
855 0.4462453053589702 0.23247122487531904 0.028089463542685156 95 139 177 0.36 75 0 76 0 77 0 
856 -0.9234536765432566 0.21761577984993621 -0.030357385942417547 167 157 157 0.19 75 0 79 0 82 0 
857 -2.149167612580535 0.24845184470858814 -0.06104062860867243 143 125 124 0.3 75 0 76 0 78 0 79 0 80 0 
858 0.7445567141685869 0.17088568604886792 0.0012793394958121596 141 136 136 0.27 75 0 76 0 77 0 
859 -0.8493901943298664 0.19275255381401943 -0.03476805475891265 116 121 137 0.62 75 0 76 0 77 0 78 0 79 0 80 0 82 0 
860 -2.07558677057951 0.2378479166220213 -0.05065358601162062 137 117 114 0.34 75 0 78 0 79 0 
861 0.9398282335286945 0.15689150433998425 -0.004275779217030262 122 118 116 0.82 75 0 76 0 77 0 
862 0.7024856408417439 0.16093061902460956 -0.0028318060800338607 137 137 140 0.25 75 0 76 0 77 0 
863 -2.2137446271804797 0.22746482462408027 -0.05294336634286445 138 115 113 0.36 75 0 78 0 79 0 
864 0.9675729189845304 0.15475308230189513 0.00493183021007404 112 100 104 0.38 75 0 76 0 77 0 
865 0.628895077240751 0.1900182056651977 0.052579341925381495 77 112 137 0.39 75 0 76 0 82 0 
866 -0.9904134417542915 0.18562674498413714 -0.022406674942152538 177 189 199 1.14 75 0 76 0 77 0 78 0 
867 -1.1415492362606738 0.21157709756680274 0.021140724163176028 173 192 207 0.54 75 0 78 0 79 0 
868 0.9204256691643116 0.15640909801912842 0.023855826708450323 119 113 108 0.77 75 0 76 0 77 0 
869 0.2945984877049205 0.1416645733168436 -0.007750569576229882 71 78 77 1.36 75 0 76 0 82 0 
870 -2.1571231745059256 0.1971904301995421 -0.040310923903974505 106 95 95 0.42 75 0 76 0 78 0 79 0 80 0 
871 0.7610053257076335 0.146126011615738 0.015374695117817527 143 140 139 0.77 75 0 76 0 77 0 
872 -2.0848674211302907 0.1844324247539524 -0.03843244333055251 67 39 42 0.28 75 0 78 0 79 0 
873 -2.202153043209549 0.18531697009034773 -0.04298036368502478 102 106 118 0.44 75 0 78 0 79 0 
874 0.789161547476434 0.13645679966457716 0.015527234452364702 147 148 148 0.46 75 0 76 0 77 0 
875 0.4346850630373794 0.1334936074365018 0.009811621644613577 66 60 65 0.67 75 0 76 0 82 0 
876 -0.7821677752877342 0.1486025579625693 -0.01322727062115181 156 156 162 0.87 75 0 76 0 77 0 78 0 79 0 82 0 
877 0.931318646623462 0.13829817935300912 0.021927557512204654 134 131 133 0.4 75 0 76 0 77 0 
878 -1.0016043978918923 0.16294681105668687 -0.0018496601783692945 153 155 172 1.15 75 0 76 0 78 0 79 0 82 0 
879 -2.306981914081828 0.18110986970269763 -0.033260669416963484 55 53 57 0.13 75 0 78 0 79 0 
880 -1.0659602348065906 0.1709358738442496 0.01569461360418467 164 185 206 0.54 75 0 76 0 77 0 78 0 79 0 80 0 
881 0.8877368892955455 0.12786386287375037 0.012632891821562797 148 147 146 0.48 75 0 76 0 77 0 
882 -1.3224860879685587 0.14868968043793188 -0.02079041688310701 158 160 170 0.67 75 0 76 0 77 0 78 0 79 0 80 0 82 0 
883 0.5754241243246468 0.15499676979426916 0.05526115293851719 150 172 193 0.24 75 0 76 0 77 0 82 0 
884 -0.837081985987196 0.13777699734545032 -0.008712047234774811 157 153 155 0.37 75 0 76 0 77 0 78 0 79 0 80 0 82 0 
885 -1.4598434532518838 0.14657806058080888 -0.02579510634426585 151 139 139 0.41 75 0 76 0 77 0 78 0 79 0 80 0 
886 -2.1147076139990917 0.13913982951520212 -0.05244892362115161 109 105 105 3.8 75 0 76 0 78 0 79 0 80 0 
887 -0.6522812575686271 0.13245480838985055 0.003644194900545017 82 77 90 1.26 75 0 76 0 77 0 78 0 79 0 
888 -0.7587698789893753 0.12440531797043947 -0.011418215831055623 177 170 167 0.67 75 0 76 0 77 0 78 0 80 0 
889 0.7695971638531738 0.1150462000278287 0.017011871886078556 141 135 134 0.25 75 0 76 0 77 0 
890 0.23902819968846512 0.10923553924129265 0.007277636890155037 152 152 151 0.1 75 0 79 0 82 0 
891 0.8901697683657839 0.10930665032771555 0.014356613141885965 110 108 112 0.36 75 0 76 0 77 0 
892 -1.6133715479601145 0.15460972737474624 0.022704699716047383 117 134 150 1.58 75 0 76 0 77 0 79 0 
893 -0.8099192735245032 0.10716736342045394 -0.011617186428944937 141 141 151 0.5 75 0 76 0 77 0 78 0 79 0 80 0 
894 -2.2291132744335798 0.15577848839871514 0.01604126544767892 82 93 97 0.28 75 0 76 0 78 0 
895 0.7845040693536536 0.09600859601237219 0.015889069210914375 139 134 135 0.49 75 0 76 0 77 0 
896 -0.6552509538315193 0.0967533601921558 0.0031024881220571565 119 118 115 0.85 75 0 76 0 77 0 78 0 79 0 82 0 
897 0.863903525381414 0.09348769176164509 0.02337909076743161 137 141 149 0.48 75 0 76 0 77 0 
898 -1.3407851705143867 0.09395572090909404 -0.005155842608198569 172 158 153 0.4 75 0 76 0 77 0 78 0 79 0 80 0 
899 -2.2018569176140717 0.10915198729871256 0.01443400789028404 150 161 175 0.59 75 0 78 0 79 0 
900 0.7941961482695765 0.09426706108868552 0.038174682303011576 121 119 122 0.73 75 0 76 0 77 0 
901 0.6104870793285276 0.06568347907994451 -0.0026687796834448108 38 32 25 1.05 75 0 76 0 77 0 
902 -1.0730903294550616 0.11019814157914046 0.046909363960072614 170 196 220 1.29 75 0 76 0 77 0 78 0 79 0 80 0 82 0 
903 -1.9554920017858353 0.0788913086159542 -0.014399434164914293 165 159 162 0.5 75 0 76 0 77 0 78 0 79 0 80 0 
904 -2.2382944321545954 0.09298100965374631 0.0021631164162312366 141 159 176 1.05 75 0 78 0 79 0 
905 0.5234311334682454 0.0702019155683882 0.02016530314008147 48 39 31 0.33 75 0 76 0 77 0 
906 -0.6510234492127017 0.06397084418895232 0.007900774883163653 97 91 93 0.59 75 0 76 0 77 0 78 0 79 0 80 0 82 0 
907 -2.1475118328658516 0.08546229527977117 0.024824205576381875 146 173 193 0.61 75 0 76 0 79 0 
908 0.809943194890562 0.07297409051030065 0.026130614763766324 107 104 104 0.12 75 0 76 0 77 0 
909 0.8955957582329634 0.06951429509083298 0.029943499723688483 114 111 110 0.28 75 0 76 0 77 0 
910 0.8472223578047233 0.06647591064760391 0.0338323757355643 122 122 129 0.44 75 0 76 0 77 0 
911 -1.193859892598521 0.049319518805560014 0.009257997690038877 131 132 134 0.3 75 0 76 0 77 0 79 0 
912 0.7937486432917678 0.05817139555137277 0.03242928813985735 124 120 115 0.12 75 0 76 0 77 0 
913 -0.6185751528663856 0.06414662335826793 0.06782154989063294 100 118 123 1.24 75 0 76 0 77 0 
914 0.8843692879136156 0.04751302443116287 0.022958293916898853 130 127 125 0.39 75 0 76 0 77 0 
915 0.7095601117610142 0.046256544633574065 0.02754670274438853 137 136 138 0.35 75 0 76 0 77 0 
916 -2.2046507127405066 0.043109213431270055 0.03734243328064979 149 178 197 0.27 75 0 78 0 79 0 
917 0.5367859330524823 0.045467849664974164 0.03475080327010893 130 123 120 1.03 75 0 76 0 77 0 
918 0.3794062180981912 -0.34875062941437496 -0.5951253417923548 88 108 46 1.21 75 0 76 0 77 0 
919 -2.2606699677794935 0.034824753910133704 0.032647377568473246 178 196 220 0.4 75 0 78 0 79 0 
920 0.49859010811358007 0.02811047244179246 0.016229324913770604 126 122 119 0.99 75 0 76 0 77 0 
921 0.37307421774822713 0.03779504042124118 0.034570747890966924 86 87 93 2.57 75 0 76 0 82 0 
922 0.26764002087162697 -0.3553131465197923 -0.6000565885596387 118 127 52 3.39 75 0 76 0 77 0 
923 0.8031847820653273 0.0420064973010445 0.034982073970967864 128 125 129 0.25 75 0 76 0 77 0 
924 0.4237465725110863 -0.3395901248056743 -0.5726479386513095 68 83 55 1.05 75 0 76 0 77 0 
925 -1.4820792776929481 0.008507562827311577 0.012438923039177485 145 132 137 0.47 75 0 76 0 77 0 78 0 79 0 80 0 
926 -0.9420056034038097 0.010164341943921296 0.016673170755993727 113 111 125 1.68 75 0 76 0 77 0 78 0 79 0 80 0 82 0 
927 0.8747232402060976 0.03537765610270008 0.030095485756010287 116 119 124 0.09 75 0 76 0 77 0 
928 -1.0665483647833194 0.04502353042830701 0.07854936236048049 172 191 212 1.84 75 0 76 0 77 0 78 0 79 0 80 0 82 0 
929 0.8489145653890777 0.037597169085810844 0.039068220634460804 126 124 123 0.39 75 0 76 0 77 0 
930 -1.1086807517568908 0.025787240122931876 0.06125909511026295 176 198 219 0.43 75 0 76 0 77 0 78 0 79 0 80 0 82 0 
931 0.8340940219453936 0.03215220834202079 0.03618583097450845 112 110 114 0.28 75 0 76 0 77 0 
932 0.8083571776683445 0.026676365800734902 0.030524102460947056 113 116 122 1.0 75 0 76 0 77 0 
933 -1.1688174291157842 0.020940745324381893 0.06467575996039754 148 175 197 0.47 75 0 76 0 77 0 78 0 79 0 80 0 82 0 
934 0.7859315432320566 0.02692375485117557 0.035010315948973414 116 117 120 0.31 75 0 76 0 77 0 
935 0.8153836088917423 0.014359458626194838 0.03652432303283648 117 113 113 0.43 75 0 76 0 77 0 
936 0.4215676865461191 -0.3371326896095401 -0.5293026776101604 54 52 23 0.39 75 0 76 0 77 0 
937 -2.267329672144241 -0.034807863320893556 0.05486167066065484 179 189 212 0.23 75 0 78 0 79 0 
938 -0.9613028010410546 -0.030082974316585853 0.035001111137909824 113 89 95 0.42 75 0 76 0 77 0 78 0 79 0 82 0 
939 -1.0437093202115442 -0.009517250403426061 0.07102710902676179 170 192 215 0.57 75 0 76 0 78 0 79 0 82 0 
940 0.217378684323702 -0.3567319006336501 -0.5485191354007064 89 91 53 0.5 75 0 76 0 77 0 
941 -1.1067471606557735 -0.0132456000174834 0.07607011025278831 177 203 227 0.45 75 0 77 0 78 0 79 0 82 0 
942 0.8555289723828114 0.017236511346369707 0.05999995252094781 113 112 113 0.33 75 0 76 0 77 0 
943 -1.1624618638321054 -0.01392611930488713 0.08292397550104669 66 83 95 0.4 75 0 76 0 78 0 
944 0.915334785022847 0.006373758491114989 0.041509839151505634 39 37 44 0.32 75 0 76 0 77 0 
945 0.2974559661160432 -0.35748672970688145 -0.5476917466682636 121 133 85 0.83 75 0 76 0 77 0 
946 0.8162427704591144 0.0035736695028808774 0.04686747909207645 103 98 102 0.31 75 0 76 0 77 0 
947 0.7771707927044791 0.0066651814948705534 0.05811822459194138 116 118 122 1.1 75 0 76 0 77 0 
948 -0.9036009113980658 -0.04780942188332392 0.03527488363911857 162 163 161 0.22 75 0 78 0 79 0 
949 -1.3757730402906945 -0.07222628601260471 0.017377732970614623 103 117 129 0.78 74 0 75 0 77 0 78 0 79 0 
950 0.29303292754168353 -0.3641204453102691 -0.5429604750460797 134 134 36 0.75 75 0 76 0 77 0 
951 -1.4483801831480807 -0.07086504457858056 0.03218671443394827 174 171 174 0.35 75 0 77 0 78 0 79 0 
952 0.8333864050090127 -0.011444140891982243 0.039810860114827484 118 119 125 0.94 75 0 76 0 77 0 
953 -1.1042013357822484 -0.03715916237365005 0.08316021276637686 183 202 222 0.47 75 0 76 0 77 0 78 0 79 0 82 0 
954 -1.161269069648011 -0.04191908140131245 0.08444753096305035 109 123 138 0.44 75 0 76 0 77 0 78 0 79 0 80 0 82 0 
955 0.2285000711671713 -0.3811360258817804 -0.5588332335988015 83 85 41 1.6 75 0 76 0 77 0 
956 -0.9463252263696691 -0.07068891067608428 0.03746799033597448 138 133 141 2.61 75 0 76 0 78 0 79 0 80 0 82 0 
957 0.969091848911215 -0.006217341963581535 0.05169205957027545 119 111 110 0.1 75 0 76 0 77 0 
958 0.7676669734476853 -0.011458759260628143 0.05495136291404856 125 117 119 0.37 75 0 76 0 77 0 
959 0.5695330342977188 -0.019343298984125734 0.056865062707042835 124 118 113 0.25 75 0 76 0 77 0 
960 0.9110363523809828 -0.014139433967346737 0.04743543114503712 120 118 118 0.33 75 0 76 0 77 0 
961 0.8901935434987418 -0.017808732270004485 0.048179633526260535 119 115 118 0.26 75 0 76 0 77 0 
962 0.7474882739614239 -0.023044868177268973 0.05245355775454774 122 114 112 0.17 75 0 76 0 77 0 
963 -2.0995588047354388 -0.09912300701455223 0.06528181377639974 171 174 186 0.37 75 0 76 0 79 0 
964 -1.1752817302988237 -0.07251935720191714 0.07328844813665247 91 81 103 0.37 75 0 76 0 77 0 78 0 79 0 80 0 
965 -1.6999069166056 -0.07979427667815278 0.08850737420913601 52 74 89 0.58 75 0 76 0 77 0 78 0 79 0 
966 0.8042065545847805 -0.027325744516163153 0.048109219011671644 118 113 114 0.23 75 0 76 0 77 0 
967 -1.1941898456842546 -0.09990793438993531 0.043025918229023574 141 145 156 0.62 75 0 76 0 77 0 78 0 79 0 80 0 
968 -1.960158969339848 -0.12362666960452995 0.03747813722798954 142 132 144 0.16 75 0 76 0 80 0 
969 0.09221852614955028 -0.4562506793196376 -0.6628558618702747 123 137 69 0.66 75 0 76 0 77 0 
970 -0.9375647925166232 -0.10276504634874323 0.044756454273497503 95 77 70 0.49 74 0 75 0 76 0 77 0 79 0 80 0 
971 -1.491865459103926 -0.12410515146684184 0.04542818274942739 178 177 188 0.41 75 0 76 0 77 0 
972 0.10454130094792702 -0.4466236703856351 -0.6322521420437974 188 185 182 0.55 75 0 76 0 77 0 
973 -1.1429762854126775 -0.11318202866437366 0.059747321779729745 62 61 62 1.79 75 0 76 0 77 0 78 0 79 0 80 0 82 0 
974 0.9036603661494718 -0.042477896465404896 0.04987043094322319 101 92 90 0.81 75 0 76 0 77 0 
975 0.5271650333105496 -0.05510144700423008 0.05708704867186265 133 134 132 0.41 75 0 76 0 77 0 
976 0.8756217206106045 -0.04394607425942387 0.05303544232649804 106 105 110 0.27 75 0 76 0 77 0 
977 0.08392875845312509 -0.4612084895260078 -0.6479907021898423 146 157 104 0.19 75 0 76 0 77 0 
978 -1.188351833809099 -0.12845235379227068 0.050750199749415525 86 81 77 0.71 75 0 76 0 77 0 78 0 79 0 82 0 
979 0.9822020267937028 -0.037865277433705935 0.06170315355127354 120 114 111 0.25 75 0 76 0 77 0 
980 -0.934259682470906 -0.1330284125844168 0.06646912021556428 170 169 169 1.11 75 0 76 0 77 0 79 0 80 0 82 0 
981 -2.0335141458322656 -0.18178553648104778 0.055160739407820625 182 184 193 0.15 75 0 76 0 80 0 
982 0.9079075831579644 -0.05497561684138165 0.06139134862430451 101 101 99 0.3 75 0 76 0 77 0 
983 0.45554999679667185 -0.3724343464987546 -0.4843773970478371 128 137 74 2.45 75 0 76 0 77 0 
984 0.14208453926088982 -0.4335008248300547 -0.575512963741541 172 172 112 2.66 75 0 76 0 77 0 
985 0.08265640271224128 -0.4674980456133506 -0.6342876458234072 119 130 99 1.1 75 0 76 0 77 0 78 0 
986 -0.9407288724214028 -0.14499829914259052 0.051019190853862195 150 145 146 0.91 75 0 76 0 77 0 78 0 80 0 82 0 
987 -1.4389226187031703 -0.1562210034876548 0.0640874191617069 122 118 106 0.33 75 0 76 0 77 0 78 0 
988 0.8793628175106643 -0.061857951678910186 0.05495209348000518 119 114 116 0.23 75 0 76 0 77 0 
989 -0.9826432343183833 -0.14594892334429443 0.058060271670025365 143 142 146 0.39 75 0 76 0 77 0 78 0 79 0 80 0 82 0 
990 -1.542917662037827 -0.1728231400441727 0.047671624682018354 97 96 86 1.28 75 0 76 0 77 0 78 0 
991 0.8424844025147706 -0.06260890292821711 0.060893963649535365 113 110 111 0.41 75 0 76 0 77 0 
992 0.953213612050569 -0.06218079663343472 0.06695256095685709 115 115 116 0.56 75 0 76 0 77 0 
993 -1.3722350060469664 -0.18324609803685066 0.05348102632684748 82 104 118 0.33 75 0 76 0 77 0 
994 0.8184238787916918 -0.07851243492856477 0.065209044679162 131 128 123 0.38 75 0 76 0 77 0 
995 0.04142812631404391 -0.4754543817717406 -0.617798952077973 178 206 199 0.31 75 0 76 0 77 0 
996 0.925585034808794 -0.0823662707603744 0.06560538916568603 107 106 103 0.28 75 0 76 0 77 0 
997 0.6987055058714566 -0.09747235620499206 0.06810828403929747 151 149 156 0.4 75 0 76 0 77 0 
998 0.833423223261371 -0.09077843125843599 0.06823954939984178 124 127 135 0.6 75 0 76 0 77 0 
999 -1.1805213381135808 -0.20086811215025774 0.06696696452017514 173 170 170 0.62 75 0 76 0 77 0 78 0 79 0 80 0 
1000 0.8639951508522465 -0.08885303105509366 0.07155032594348931 88 92 93 0.56 75 0 76 0 77 0 
1001 0.8097402124493351 -0.09679397016527452 0.06288153885533676 96 91 94 0.87 75 0 76 0 77 0 
1002 0.23926675231366112 -0.44613066143111446 -0.5539240228680917 40 39 29 0.72 75 0 76 0 77 0 
1003 0.7868060557962899 -0.10014132314914508 0.06255666319702424 119 117 115 0.18 75 0 76 0 77 0 
1004 0.7172686486085318 -0.10199712108100556 0.07633857477596884 140 137 135 0.66 75 0 76 0 77 0 
1005 0.6452637235708711 -0.10431753282782673 0.07571928949707774 132 126 125 1.87 74 0 75 0 76 0 77 0 
1006 0.8904337687441892 -0.10277425471171006 0.06777239627865983 116 112 116 0.27 75 0 76 0 77 0 
1007 0.069079205935893 -0.49274371593393695 -0.6054801875912998 155 173 88 0.78 75 0 76 0 77 0 
1008 -0.978791675357435 -0.2159124067371373 0.07619336050713477 173 173 177 0.67 75 0 76 0 77 0 78 0 79 0 
1009 -1.355312253847968 -0.23847176507964316 0.0642629301722133 97 111 120 2.46 75 0 77 0 78 0 
1010 -1.4671486442190627 -0.24457616275951174 0.08609178660716177 124 131 144 0.19 75 0 76 0 77 0 
1011 -1.1226046174050157 -0.23785339274877035 0.07800215440902081 78 85 99 0.62 75 0 76 0 77 0 78 0 79 0 80 0 
1012 0.8775027437152674 -0.11772416473943337 0.06915235634705974 112 112 116 0.32 75 0 76 0 77 0 
1013 0.8592306567251369 -0.11914328863032841 0.0692864894937264 120 118 121 0.44 75 0 76 0 77 0 
1014 -0.9939319111350842 -0.25158308188336465 0.07884638696305801 148 147 152 0.53 75 0 76 0 77 0 78 0 79 0 80 0 82 0 
1015 -0.9620079658662803 -0.2511027582128035 0.0823838947966502 120 118 129 0.39 75 0 76 0 77 0 78 0 79 0 
1016 -1.0846495207787965 -0.2560496513664182 0.08999474750670133 143 145 151 0.43 75 0 78 0 79 0 
1017 -1.12372379152943 -0.2596242700334393 0.09487911338607669 103 102 107 1.28 75 0 76 0 77 0 78 0 79 0 80 0 
1018 0.8363002929976928 -0.13018552902092342 0.08346315922730918 114 114 117 0.37 75 0 76 0 77 0 
1019 -1.0520933013446074 -0.26222557766196986 0.0855064502337255 134 138 145 0.52 75 0 76 0 77 0 78 0 79 0 82 0 
1020 -1.150629514505213 -0.27115628391780244 0.0861409151345609 110 120 124 0.46 75 0 76 0 77 0 78 0 79 0 80 0 
1021 0.7759831295871673 -0.14272143435905382 0.07414003002624536 138 143 152 0.4 75 0 76 0 77 0 
1022 -1.494392496402643 -0.2931941436323481 0.10478891887242359 165 158 163 0.53 75 0 76 0 77 0 
1023 0.9023472012141958 -0.13795934124468634 0.08420524173146582 120 122 126 0.37 75 0 76 0 77 0 
1024 0.8647781434119992 -0.15034010003380155 0.07094916214162872 146 145 151 0.92 75 0 76 0 77 0 
1025 -1.0686298931591647 -0.4537105034934187 -0.2623897439440226 138 141 112 1.24 75 0 76 0 77 0 
1026 -1.1111608160370263 -0.29499802286075283 0.09761572573197608 127 111 109 0.64 75 0 76 0 77 0 78 0 79 0 80 0 
1027 0.6449586060096221 -0.16875571217212776 0.09479495682687933 58 61 51 2.74 74 0 75 0 76 0 77 0 
1028 0.7818147156220392 -0.16023104191093335 0.10009354653968305 138 137 132 1.33 75 0 76 0 77 0 
1029 0.8174405688513282 -0.16273146747518155 0.08905418974270729 110 106 107 0.47 75 0 76 0 77 0 
1030 0.7456130095118185 -0.16853214470427713 0.09091055808042814 132 129 130 0.45 75 0 76 0 77 0 
1031 0.9071674471695867 -0.16629015584638648 0.0795043784443159 72 85 92 0.43 75 0 76 0 77 0 
1032 -1.219417003805594 -0.3296907883999671 0.10107992690614154 114 116 125 0.54 75 0 76 0 77 0 78 0 79 0 
1033 0.718967244158307 -0.17871807969718415 0.09107948385835174 88 96 102 0.34 75 0 76 0 77 0 
1034 -0.9256570072230774 -0.3107130631062399 0.10128006806831547 72 63 65 0.36 75 0 76 0 77 0 78 0 79 0 82 0 
1035 -1.1451922900055571 -0.3347215468994795 0.10653210423997672 68 77 82 0.42 75 0 76 0 77 0 78 0 79 0 80 0 
1036 0.9496976909572574 -0.17258386009991275 0.09529864883893291 108 108 105 0.19 75 0 76 0 77 0 
1037 0.901324935343196 -0.18182423572110382 0.09432053053101486 55 56 66 0.53 75 0 76 0 77 0 
1038 0.8380955577608886 -0.1841365676828551 0.10315925611014043 158 158 159 0.63 75 0 76 0 77 0 
1039 -1.1232919631313363 -0.34063877103948736 0.1453209218027265 43 40 33 1.39 75 0 76 0 77 0 78 0 79 0 82 0 
1040 -0.9980308055159723 -0.34878544508053977 0.12875973556254783 121 130 122 1.47 75 0 77 0 78 0 
1041 0.8982303427677516 -0.19356835407864198 0.09750252956449534 96 96 101 0.42 75 0 76 0 77 0 
1042 -1.1434505723842543 -0.36838421977397473 0.12129655395142347 107 110 106 0.68 75 0 76 0 77 0 78 0 79 0 80 0 
1043 -1.4631880590096475 -0.39099712382083573 0.1528331189852974 167 168 164 1.2 75 0 76 0 77 0 
1044 -1.0886171222768757 -0.5679240880204116 -0.31509070021669183 97 90 86 0.98 75 0 76 0 77 0 
1045 0.9291019238812626 -0.2185779189118891 0.10017193363297672 110 110 111 0.1 75 0 76 0 77 0 
1046 0.24417160006937355 -0.6209507186371752 -0.7004775396095346 110 135 78 0.6 75 0 76 0 77 0 
1047 0.7229427321761872 -0.24155409122961766 0.10815529248890465 96 101 106 0.43 75 0 76 0 77 0 
1048 0.9029468900588398 -0.23401146578937163 0.10833835119392665 95 94 89 0.59 75 0 76 0 77 0 
1049 -1.4345229183856563 -0.4640952863688672 0.15821654490407955 142 137 141 1.09 75 0 76 0 77 0 
1050 0.923027547596841 -0.24194256533746009 0.11771347392724119 105 106 102 0.57 75 0 76 0 77 0 
1051 0.8215369446764518 -0.2568977957775016 0.11236374312808595 106 104 106 0.49 75 0 76 0 77 0 
1052 0.17239274151849449 -0.6673234433582024 -0.7377470361237712 134 152 41 0.72 75 0 76 0 77 0 
1053 0.8658583707677296 -0.26488974198731546 0.11822650845095994 87 88 88 1.11 75 0 76 0 77 0 
1054 0.8012525121248975 -0.2625361027411088 0.14243718517504567 101 108 95 0.93 75 0 76 0 77 0 
1055 0.7821191738222848 -0.2732581801207574 0.12194351928859604 80 84 69 0.67 75 0 76 0 77 0 
1056 0.7713725164074996 -0.27571313058576785 0.1187747935359047 117 116 110 1.92 75 0 76 0 77 0 
1057 0.7587850824413214 -0.2835084300740133 0.10563671144291487 133 131 125 0.49 75 0 76 0 77 0 
1058 -1.2384488337503856 -0.5044820869783491 0.15061213153029485 148 149 152 0.23 75 0 76 0 77 0 78 0 
1059 -1.1020868852577432 -0.504437350459016 0.13162296380287586 82 84 69 2.14 75 0 76 0 78 0 79 0 
1060 0.7460209463995147 -0.2962071268601104 0.11712581964600943 109 104 101 0.56 75 0 76 0 77 0 
1061 0.8448044789997438 -0.4245834665808357 -0.24600585146935128 80 96 73 0.71 75 0 76 0 77 0 
1062 -1.046217585762819 -0.4991294657140902 0.20592674204283945 143 162 181 0.37 75 0 76 0 77 0 78 0 79 0 80 0 
1063 -1.2898076615254679 -0.5707735072889923 0.1623787198036788 72 63 65 0.48 75 0 76 0 77 0 78 0 79 0 
1064 -1.3747852297287537 -0.5679098560697998 0.2025603224277992 57 71 81 0.96 75 0 76 0 77 0 
1065 -1.6348794924984105 -0.5982278365675125 0.21022536709856765 84 101 122 0.46 75 0 76 0 77 0 
1066 -1.580743345250603 -0.5955699775343183 0.21751871249185162 157 174 200 0.28 75 0 76 0 77 0 79 0 
1067 -1.119391656928964 -0.5417287869840307 0.2207993463702862 126 129 143 0.66 75 0 76 0 77 0 78 0 79 0 80 0 
1068 -0.898161616912025 -0.5370711714165933 0.161310462239165 113 115 127 0.71 75 0 76 0 78 0 79 0 80 0 82 0 
1069 -0.9565442530486017 -0.7280612810370828 -0.2933163305331514 42 42 35 0.42 75 0 76 0 77 0 
1070 -1.4299721657795972 -0.664611213391184 0.1855205228836243 105 105 120 1.14 75 0 76 0 77 0 78 0 79 0 
1071 -0.8859986757620939 -0.6859468435496524 0.20134603991030708 96 91 99 2.54 75 0 76 0 77 0 78 0 
1072 0.5134563609286859 -0.5317163496653499 0.21733960113457362 34 27 29 1.02 75 0 76 0 77 0 
1073 0.38143417872223395 -0.6988388312212287 -0.3535360668464018 55 75 39 2.2 74 0 75 0 76 0 77 0 
1074 0.4285895890339887 -0.570351071698001 0.19358531064182793 53 55 47 0.49 75 0 76 0 77 0 
1075 0.3990779883289256 -0.5765514774482848 0.18507894123529844 39 38 36 0.89 75 0 76 0 77 0 
1076 0.7267494577018982 -0.5386749983964237 0.10830200238515086 96 104 110 3.42 75 0 76 0 77 0 
1077 0.4663791746038721 -0.5674919719138126 0.19510495972071085 88 91 86 0.59 75 0 76 0 77 0 
1078 0.22891394553867184 -0.7856482527256332 -0.5405720590979701 75 88 45 1.88 75 0 76 0 77 0 
1079 0.4062652680670631 -0.6042615760233505 0.18900825982419933 43 48 32 0.73 75 0 76 0 77 0 
1080 0.5074665032115612 -0.5885605432446245 0.20795996766667435 46 45 39 2.97 75 0 76 0 77 0 
1081 0.49127956627922376 -0.5931782407769317 0.19516167006746898 37 39 35 0.21 75 0 76 0 77 0 
1082 0.5246957968519527 -0.5872944660993626 0.20539442629073767 44 45 39 0.63 75 0 76 0 77 0 
1083 0.303635004746693 -0.7681262253588372 -0.46305454942982704 87 110 64 2.03 75 0 76 0 77 0 
1084 0.16355388024573347 -0.8057837507379294 -0.49766933632443777 126 144 76 0.89 75 0 76 0 77 0 
1085 0.2368747111132512 -0.787398172433452 -0.4740055641245573 108 126 71 0.87 75 0 76 0 78 0 
1086 -0.5813993386600982 -0.9397252261443155 -0.3948097895768119 26 32 27 0.65 75 0 76 0 77 0 78 0 
1087 0.4911538210626163 -0.6071066149988265 0.19872739318448462 43 45 41 0.21 75 0 76 0 77 0 
1088 0.5334507936270714 -0.6029774033369543 0.20104339863603404 50 51 47 0.59 75 0 76 0 77 0 
1089 0.5166272443171884 -0.6240182876095645 0.17221396728470584 47 52 41 1.99 75 0 76 0 77 0 
1090 0.4267693777921958 -0.7529156421087059 -0.40599328382497246 51 64 23 0.79 75 0 76 0 77 0 
1091 -0.30354048164013403 -0.9431072309170531 -0.5151018605599393 102 106 98 0.25 75 0 76 0 77 0 
1092 -0.5734065308456426 -0.982294689644186 -0.3923701115384084 60 85 89 0.28 75 0 76 0 77 0 
1093 0.46951173265789836 -0.7643514917126494 -0.426436581079527 76 78 49 0.47 75 0 76 0 77 0 
1094 0.42692033464318324 -0.7749715756953031 -0.41732348786989926 79 86 50 0.47 75 0 76 0 77 0 
1095 0.3379481332276236 -0.8155704839486158 -0.47709078306493247 71 78 39 1.24 75 0 76 0 77 0 
1096 0.3791141319381939 -0.7983041883598871 -0.4228218413674121 51 63 24 0.51 75 0 76 0 77 0 
1097 -0.18263823300035456 -0.9559305490193689 -0.5377823708456555 33 30 24 0.34 75 0 76 0 77 0 
1098 0.36953029142405436 -0.8187727246491191 -0.458388158741295 46 51 24 0.37 75 0 76 0 77 0 
1099 0.3849739397934486 -0.8183096650439863 -0.4332470331637994 52 56 30 0.68 75 0 76 0 77 0 
1100 0.3694127233609227 -0.8275013634706435 -0.44700093795542983 31 33 26 0.78 75 0 76 0 77 0 
1101 0.19897626760000742 -0.889551160861625 -0.5259472120629107 125 130 89 0.6 75 0 76 0 77 0 
