# 3D point list with one line of data per point:
#   POINT3D_ID, X, Y, Z, R, G, B, ERROR, TRACK[] as (IMAGE_ID, POINT2D_IDX)
# Number of points: 478, mean track length: 4.0
139 0.596828351663269 0.23278727008802494 0.04541950342422396 119 149 176 0.41 74 0 76 0 77 0 82 0 
140 0.38074658760653224 0.20267230579733633 -0.011995881708147582 152 150 150 1.05 74 0 75 0 76 0 77 0 
141 -1.220906925246023 0.3049783971338218 -0.010810450809543237 103 92 87 0.46 74 0 75 0 76 0 77 0 78 0 79 0 
142 -1.7087488461699123 0.3070772217107277 -0.05858222137686164 146 133 131 0.42 74 0 75 0 76 0 77 0 78 0 79 0 80 0 
143 0.7665663572867527 0.18921965080762396 -0.0003283604073684998 140 141 144 0.5 74 0 75 0 76 0 77 0 
144 0.2837553097262463 0.19906720324067287 -0.02007711511629573 86 83 94 0.5 74 0 75 0 76 0 82 0 
145 0.962887453120117 0.19033869006052098 0.01586371791875152 124 122 124 0.88 74 0 75 0 76 0 77 0 
146 0.5681154826453383 -0.5778470226017824 0.23224837791975794 38 42 30 0.94 74 0 76 0 77 0 
147 0.8682579729375679 0.1849098175697397 0.001232222589704346 145 152 161 0.23 74 0 75 0 76 0 77 0 
148 -1.4123388439818136 0.2812608280146628 -0.05140897708377157 82 57 52 0.53 74 0 75 0 76 0 77 0 78 0 79 0 80 0 
149 0.5677496136468039 0.22240086963219427 0.03948580431494708 149 157 169 0.56 74 0 75 0 76 0 77 0 
150 0.9335028773533567 0.1988436378917092 0.03246488420817473 136 127 120 1.19 74 0 75 0 76 0 
151 0.7271855771850251 0.1975757638331518 0.016820533631543455 139 137 137 1.02 74 0 75 0 76 0 
152 0.4254692343021188 0.19985137120129073 0.0017432619389503579 50 40 46 0.43 74 0 75 0 76 0 
153 0.14463271206635064 0.20760949044963187 -0.0076797276760158795 81 93 106 0.78 74 0 75 0 79 0 
154 0.9996405260220929 0.20943089588076527 0.05419913093431328 117 121 129 0.23 74 0 75 0 76 0 
155 0.3965726648171618 0.19551501961741544 -0.0008285372985921136 156 159 161 0.3 74 0 75 0 76 0 82 0 
156 0.5056836371804962 0.2179183809353398 0.04502901947415161 105 124 145 0.71 74 0 75 0 76 0 82 0 
157 0.47658822980678184 0.21600872430981508 0.04567181073182747 100 116 139 0.36 74 0 75 0 76 0 
158 -1.5517649286877666 0.2676010128946116 -0.04923786313019418 119 101 107 0.24 74 0 77 0 79 0 80 0 
159 0.7653530695342385 0.17402637229856774 0.005625715943396781 171 175 181 0.41 74 0 75 0 76 0 77 0 
160 0.5833996114964805 0.21375216838168212 0.05472924607186114 125 171 200 0.63 74 0 75 0 76 0 
161 0.8885536238014471 0.1659350900285437 0.0046588865683481195 42 67 81 0.22 74 0 75 0 76 0 77 0 
162 0.4471293603046155 0.20966240231989577 0.04343135921626606 96 105 117 0.22 74 0 75 0 76 0 
163 -1.8587346897545227 0.2764836807731107 -0.05492610061379066 149 138 136 0.67 74 0 76 0 77 0 80 0 
164 0.4382967421773448 -0.6024654831241992 0.18158508850317734 43 46 34 1.38 74 0 75 0 76 0 77 0 
165 0.9148684641281326 0.16378636510301378 0.007392629014820962 115 106 100 0.72 74 0 75 0 76 0 77 0 
166 0.1982178854283777 -0.798816058589727 -0.5116559630379518 78 83 41 1.07 74 0 75 0 76 0 
167 0.3831873618911208 0.18959127878494028 0.017081277707205356 146 148 151 0.62 74 0 75 0 76 0 
168 -1.9407944595635545 0.27050075403295826 -0.05374577688159965 136 120 115 0.55 74 0 75 0 76 0 77 0 78 0 79 0 80 0 
169 -1.6859790528117065 0.25420818134124146 -0.044852124581662434 90 80 81 0.83 74 0 75 0 76 0 77 0 78 0 79 0 80 0 
170 0.9850828512340106 0.16097332075491258 0.016048091425048927 56 44 51 0.56 74 0 75 0 76 0 
171 0.6723484107903113 0.17050068420272838 0.015901540480037557 145 137 134 1.33 74 0 75 0 76 0 77 0 
172 -1.0096299309403314 0.23306511847096548 -0.017734060099529714 177 187 190 0.66 74 0 75 0 76 0 77 0 78 0 79 0 80 0 82 0 
173 0.499787318398104 -0.5739252707725934 0.20968982165178107 43 43 41 0.57 74 0 75 0 76 0 77 0 
174 -1.0830942587922487 0.24487921331495208 0.005238529886619769 159 185 204 0.45 74 0 75 0 76 0 77 0 78 0 79 0 80 0 82 0 
175 0.370123568732734 -0.22891398628091908 -0.5723733314984663 165 183 93 1.23 74 0 75 0 76 0 77 0 
176 -1.5481019123354136 0.2318246468603837 -0.04042373916711339 137 115 116 0.4 74 0 75 0 80 0 
177 -1.777380635171915 0.25089212389622584 -0.025305150920480468 46 34 35 0.44 74 0 75 0 76 0 78 0 
178 -1.7791500945654046 0.24394238670141297 -0.0413757952370748 67 68 71 0.26 74 0 75 0 76 0 77 0 78 0 79 0 80 0 
179 0.843119360749444 0.14588856252822294 0.009093501846003438 81 96 107 1.11 74 0 75 0 76 0 77 0 
180 -1.2057652504527914 0.23596489742928048 0.010151693394818473 147 167 186 0.62 74 0 75 0 76 0 77 0 78 0 79 0 80 0 82 0 
181 0.8981788705011986 0.1442632334246066 0.01121928907142733 122 120 118 1.0 74 0 75 0 76 0 77 0 
182 0.4273933810820094 -0.5856517106970976 0.19465401451888753 32 32 28 0.55 74 0 75 0 76 0 77 0 
183 0.40268649935218337 -0.5906086477172766 0.19143743493079857 50 50 45 0.6 74 0 75 0 77 0 
184 -1.6924511719843955 0.24528198462205777 -0.007376588002474094 123 117 116 0.58 74 0 75 0 76 0 77 0 79 0 80 0 
185 1.0572697156019752 0.13244428482647858 0.008077896159741194 66 76 49 0.32 74 0 75 0 76 0 
186 0.6872554407552822 0.14387572450562278 0.00996034257305789 43 44 51 0.49 74 0 75 0 76 0 77 0 
187 0.43082138365594513 0.1540841281767962 0.012253477408648461 73 66 66 0.37 74 0 75 0 76 0 82 0 
188 0.39921172843694663 0.1518973545978836 0.010263256936106746 137 136 140 0.36 74 0 75 0 76 0 82 0 
189 -1.7606197530852652 0.24131989079324664 -0.006219708766655785 95 85 82 0.41 74 0 75 0 76 0 77 0 78 0 79 0 
190 0.5417607551065033 0.18993951777048743 0.07645314090829336 103 151 184 1.17 74 0 75 0 77 0 
191 1.0220093618132975 0.1273202235016575 0.009924305839043246 41 30 23 0.46 74 0 75 0 76 0 
192 0.4709602105620947 0.16381772522570995 0.050494011789560034 117 166 191 0.33 74 0 75 0 76 0 
193 0.972447882386372 0.12456945602805672 0.016118445828992023 82 74 67 0.45 74 0 75 0 76 0 77 0 
194 -1.9046133861676906 0.2006309270705349 -0.03423483763367452 110 96 95 0.46 74 0 75 0 76 0 77 0 78 0 79 0 80 0 
195 0.5131163783442303 -0.5463872461789059 0.19772618471360404 99 104 107 0.32 74 0 75 0 76 0 77 0 
196 0.9205636943542514 -0.61183775470126 -0.35633991353671846 60 65 51 0.33 74 0 75 0 76 0 
197 0.9073421482878163 -0.6125527491376813 -0.3551467092053966 32 37 30 0.7 74 0 75 0 76 0 
198 0.40313623961152345 0.13693473812106632 0.01543658454298269 171 166 163 0.22 74 0 75 0 76 0 
199 -1.2745377639367907 0.1811920458287364 -0.022131784694545242 162 159 160 0.35 74 0 77 0 79 0 80 0 
200 -2.0958532795642926 0.20441271474180853 -0.037860757852342 81 55 57 0.48 74 0 75 0 76 0 78 0 79 0 80 0 
201 0.5471872321330581 0.15392214589168876 0.05476783429328558 129 155 182 1.31 74 0 75 0 76 0 77 0 
202 0.6972400966779704 0.12109266425001272 0.014853117993157472 153 149 147 0.32 74 0 75 0 76 0 77 0 
203 -2.030316291369976 0.18947557117533712 -0.02896801864551435 122 106 114 0.47 74 0 75 0 76 0 77 0 78 0 79 0 80 0 
204 0.4398575820230217 -0.5557195746434497 0.19087915207123363 75 76 68 0.4 74 0 75 0 76 0 77 0 
205 0.6561390624625388 0.12576865283779917 0.025895740481097995 63 59 75 0.39 74 0 75 0 76 0 77 0 
206 0.45777670983290986 0.14032176894455337 0.0531032096714803 94 101 119 0.44 74 0 75 0 76 0 82 0 
207 0.7165123519009475 0.11210858208240856 0.02166846173366599 145 144 149 0.17 74 0 75 0 76 0 77 0 
208 0.34348053986359295 -0.2878064706840625 -0.6093875849261923 119 144 107 0.3 74 0 75 0 76 0 
209 1.0093898163109214 0.1044414944333005 0.020285248324905414 124 113 113 0.23 74 0 75 0 76 0 
210 0.9843057524970897 0.10679932108666113 0.02157724165238717 128 121 115 0.59 74 0 75 0 76 0 
211 0.36443335853190195 0.10531912313876945 0.0019037476509544682 140 141 143 0.49 74 0 75 0 76 0 
212 -1.1348598985903529 0.16856018172005197 0.023807504933842427 160 187 208 0.32 74 0 75 0 76 0 77 0 78 0 79 0 80 0 82 0 
213 -2.09235030695407 0.16905173257717468 -0.02792049114194084 132 113 112 0.58 74 0 75 0 76 0 78 0 79 0 80 0 
214 -1.6836627356208316 0.1766189938676795 0.012300263365572217 162 191 212 0.42 74 0 75 0 76 0 77 0 78 0 79 0 80 0 
215 1.0551888478731175 0.10002722107613105 0.021349312645433827 128 125 121 0.24 74 0 75 0 76 0 
216 -1.1945740073814095 0.1617297173532146 0.023502610415054637 152 173 193 0.54 74 0 75 0 76 0 77 0 78 0 79 0 80 0 82 0 
217 -1.7407113589918088 0.1696732031321541 0.009900930839117805 170 191 210 0.52 74 0 75 0 76 0 77 0 78 0 
218 -1.8152217663465307 0.1576519053516933 -0.016965831806770026 123 137 153 0.47 74 0 75 0 76 0 77 0 78 0 79 0 80 0 
219 1.0277700485603298 0.1004300796124745 0.0265472040441046 127 122 115 0.39 74 0 75 0 76 0 
220 0.9038341364511542 0.1029408408345738 0.025270406534498413 148 155 166 0.47 74 0 76 0 77 0 
221 1.0100306918347473 0.09530250358075704 0.02336218218092645 119 107 102 0.25 74 0 75 0 76 0 
222 0.4389408812582659 -0.5415143412009745 0.1871860844256772 52 53 45 0.62 74 0 75 0 76 0 77 0 
223 0.9905583982861275 0.09516387226704859 0.029013535860613615 101 86 78 0.56 74 0 75 0 76 0 
224 -0.9920459338584574 0.12450174183962814 -0.0001410805758581546 115 127 136 1.01 74 0 76 0 78 0 80 0 
225 0.704379903404837 0.0922406513247746 0.023649722962448383 140 138 143 0.39 74 0 75 0 77 0 
226 0.3464713566697708 -0.5687238177616037 0.12167141137497017 92 105 94 0.81 74 0 75 0 77 0 
227 0.3014359280076566 -0.5609674760130668 0.17422706481372607 103 105 107 0.55 74 0 75 0 76 0 
228 0.4057307547901233 -0.5432863699988585 0.18988002488082412 44 45 42 0.4 74 0 75 0 76 0 77 0 
229 0.6794677417644062 0.08917205815555398 0.019890696444623046 93 90 86 0.53 74 0 75 0 76 0 77 0 
230 -1.4784673443722118 0.1350026480917898 0.008511244829808806 158 158 165 0.77 74 0 75 0 77 0 78 0 79 0 
231 1.0523688356106384 0.08713499975291775 0.02857952770519878 130 127 124 0.54 74 0 75 0 76 0 
232 0.42397447116686326 -0.5291980655477205 0.1852813977072696 87 95 93 0.55 74 0 75 0 76 0 77 0 
233 0.39935644082280075 -0.5363047729261472 0.17255713825399255 72 67 62 0.22 74 0 75 0 76 0 77 0 
234 -1.4857971130116283 0.11621752089281046 -0.00914921747156816 139 101 98 0.31 74 0 75 0 76 0 77 0 78 0 79 0 80 0 
235 1.0239320036453303 0.08815842192594239 0.038484429830645706 145 139 136 0.21 74 0 75 0 76 0 
236 0.7435710406979947 0.08135875661701275 0.02402461843713244 124 122 122 0.32 74 0 75 0 76 0 77 0 
237 0.3398545729054462 -0.3179352055304695 -0.6200090706763741 127 149 93 0.46 74 0 75 0 76 0 
238 0.9772723758677 0.0794121752816028 0.030941153273758015 114 105 102 0.65 74 0 75 0 76 0 77 0 
239 0.9516303769704051 0.07578536762107077 0.03053195878976034 140 132 125 0.64 74 0 76 0 77 0 
240 0.5570297807367893 0.07642025659030044 0.023776455718086176 44 35 27 0.57 74 0 75 0 76 0 77 0 
241 0.29539776286249186 0.0730276602936426 0.01350882837439249 101 102 108 0.75 74 0 75 0 82 0 
242 1.0383793422528151 0.07397779632180942 0.030016446566101695 96 90 84 0.24 74 0 75 0 76 0 
243 -2.0863203729446487 0.10013474374951892 -0.009779580401626742 152 159 169 0.72 74 0 75 0 76 0 78 0 79 0 80 0 
244 0.7793499043871424 0.07109929757831873 0.03167590852839641 114 110 118 0.62 74 0 75 0 76 0 
245 -1.802051747257176 0.09506474628453973 -0.007001633455817391 94 90 104 0.45 74 0 75 0 76 0 77 0 78 0 79 0 80 0 
246 0.23706745595579548 0.06586069640214201 0.019826403417211758 130 125 121 0.5 74 0 75 0 79 0 82 0 
247 -1.6220421979962494 0.1162186280147364 0.03660600353791743 137 162 180 0.63 74 0 75 0 76 0 77 0 78 0 79 0 80 0 
248 0.2603322473423768 -0.3134564478293027 -0.5924954067730419 109 124 61 0.36 74 0 76 0 77 0 
249 -1.6747198542523605 0.1053076730818665 0.03028231068372733 154 179 200 0.7 74 0 75 0 76 0 77 0 78 0 79 0 80 0 
250 0.42684953759423494 0.061576766058069665 0.026950714836007528 75 60 53 0.43 74 0 75 0 76 0 82 0 
251 -1.730829472462519 0.09888114112185845 0.027888345737500764 150 168 189 0.65 74 0 75 0 76 0 77 0 78 0 79 0 80 0 
252 0.6821993746137259 0.06028645197766716 0.03454104677626724 124 119 124 1.02 74 0 75 0 77 0 
253 0.5571440433974268 0.060373350300294865 0.03219254429728435 106 97 91 0.45 74 0 75 0 76 0 77 0 
254 -1.4695554070382408 0.0740685445464895 0.003098224645663006 90 91 102 0.52 74 0 75 0 76 0 77 0 78 0 79 0 80 0 
255 0.6483241950536329 0.058844983388968736 0.035373944795169976 132 124 118 0.29 74 0 75 0 76 0 77 0 
256 1.0405034983486225 0.05537121275258172 0.03168943580418748 114 102 95 0.57 74 0 75 0 76 0 
257 0.8944213869111151 0.061833271385467764 0.043613115997891416 108 113 126 0.21 74 0 75 0 76 0 
258 -1.5257008835353605 0.06137774416928182 0.006910426354113319 150 152 161 0.71 74 0 75 0 76 0 77 0 78 0 79 0 80 0 
259 0.7355231391486736 0.050663993714463756 0.03327202779070415 117 116 119 0.42 74 0 75 0 76 0 77 0 
260 0.966920034381705 0.05134145031755846 0.03791288392281489 126 125 123 0.26 74 0 75 0 76 0 77 0 
261 -1.0122873115463218 0.05377617775250995 0.012187176474432793 163 184 205 1.0 74 0 76 0 77 0 
262 0.6851999839914239 0.0391249236992271 0.025759051783827758 131 125 125 0.45 74 0 75 0 76 0 
263 0.778990370099701 0.04513327275947043 0.03988539328391871 124 118 117 1.11 74 0 75 0 76 0 77 0 
264 0.6528928260040561 0.044033023071953864 0.037289237724258406 107 101 103 0.21 74 0 75 0 76 0 77 0 
265 1.0175722421993092 0.039735288136502844 0.03415303667113179 126 123 121 0.79 74 0 75 0 76 0 
266 0.628450201454418 0.03702685578291126 0.03170101738286535 125 121 124 0.24 74 0 75 0 76 0 
267 0.7612713474183472 0.04056816524550724 0.040922651342853555 140 137 139 0.39 74 0 75 0 76 0 77 0 
268 0.6045303148724899 0.035924926170351534 0.03446816548529963 122 116 117 0.31 74 0 75 0 76 0 77 0 
269 0.988503932752675 0.04111790321527006 0.044602448114798854 109 99 95 0.12 74 0 75 0 76 0 
270 0.5639463107700206 0.0331666692955358 0.0379741946751424 130 122 116 0.8 74 0 75 0 76 0 77 0 
271 0.16658727907187643 0.025534001401114587 0.025727452718161903 153 153 146 1.01 74 0 75 0 79 0 
272 0.5150016773505467 0.024563640321950075 0.03167371994572177 117 114 111 1.03 74 0 75 0 76 0 77 0 
273 0.30956162426404465 0.014710283033751922 0.011878036406459902 102 105 111 0.19 74 0 75 0 76 0 
274 0.2895100350649946 -0.6890208271182712 -0.46460030325011603 58 59 35 0.76 74 0 75 0 76 0 
275 0.45381941388280933 -0.4799408214298727 0.18863468542974315 105 107 86 0.97 74 0 75 0 77 0 
276 0.5110341538249519 -0.47781098203096684 0.17054852847879332 34 24 25 0.53 74 0 75 0 76 0 
277 0.6555252633024761 0.029199217455688903 0.03807084439753128 145 141 140 0.46 74 0 75 0 76 0 77 0 
278 0.8969031181585831 0.026305279185248637 0.04286313135196984 81 97 109 0.58 74 0 75 0 76 0 77 0 
279 0.7626542739982889 0.020740245655877704 0.032045430954516174 131 123 125 0.55 74 0 75 0 76 0 77 0 
280 1.0228828717644247 0.03197330523419464 0.04982766448449372 130 123 119 0.47 74 0 75 0 76 0 
281 0.586318113935076 0.0203161182948306 0.038723774805249356 138 136 137 0.73 74 0 75 0 76 0 
282 1.0009979757664051 0.023739550127265002 0.04073127166568513 153 143 138 0.28 74 0 75 0 76 0 
283 -1.746953076265922 0.028429962124550373 0.05285384639786228 165 172 195 0.39 74 0 75 0 76 0 77 0 78 0 79 0 80 0 
284 1.088707485103606 0.026385651905816127 0.04727709908424238 113 106 100 0.66 74 0 75 0 76 0 
285 0.6768002408652655 0.02117958862211286 0.04581057176523151 107 103 101 0.44 74 0 75 0 76 0 77 0 
286 0.6540309850893865 0.03414604142741279 0.07081852758068452 126 126 125 1.25 74 0 75 0 76 0 
287 0.5400451190050801 0.014927744569531248 0.03822383699246901 133 132 131 0.69 74 0 75 0 76 0 
288 0.2057177000436463 -0.3530678701667139 -0.5885368322670357 193 194 190 1.24 74 0 75 0 76 0 
289 0.6358046827481963 0.0133687995583876 0.04436038826883992 133 123 115 0.64 74 0 75 0 76 0 77 0 
290 0.7789184161663956 0.020946051555422535 0.058322153173086644 134 131 133 0.72 74 0 75 0 77 0 
291 0.3282549229284164 0.0023438713437510805 0.03326380588515354 68 63 60 0.4 74 0 75 0 76 0 
292 1.0275780678385598 0.01599439616229996 0.047116876629371696 118 110 107 0.25 74 0 75 0 76 0 
293 0.6075549610556427 0.008918772163744912 0.04375087089063978 168 163 154 0.22 74 0 75 0 76 0 77 0 
294 1.0044251601958696 0.019975937876254984 0.0599822141427202 123 115 112 0.35 74 0 75 0 76 0 
295 0.7145814620100401 0.005289635980375795 0.039129478723625155 135 134 136 0.44 74 0 75 0 76 0 77 0 
296 0.5847005667304865 0.0063860665988378085 0.04505468667628154 148 138 132 0.5 74 0 75 0 76 0 77 0 
297 0.5716336246264393 0.0002791734763854803 0.03541519166797258 115 107 103 1.02 74 0 75 0 76 0 
298 0.43579239990893215 0.00596683806953599 0.04598889658060035 126 116 113 0.3 74 0 75 0 76 0 82 0 
299 0.3035361350129334 -0.0025879214177811916 0.03369802053117388 75 74 79 0.17 74 0 75 0 82 0 
300 0.9486096173539087 0.011010973514712197 0.0515070557424111 98 97 98 0.24 74 0 75 0 76 0 77 0 
301 0.6763448666765984 0.006123966249879431 0.048057655398123345 130 122 120 0.47 74 0 75 0 76 0 77 0 
302 0.7265948468536612 0.0092389980998005 0.07243121207024705 120 124 124 1.03 74 0 75 0 76 0 77 0 
303 1.0166369440930538 0.000800176564932642 0.05121541665511087 131 123 115 0.87 74 0 75 0 76 0 
304 0.7502262630191923 -0.0031756226819940614 0.05224347928607864 64 65 77 0.77 74 0 75 0 76 0 77 0 
305 0.5424621391809736 -0.019234123140424844 0.036348796403203654 128 121 119 1.09 74 0 75 0 76 0 
306 0.3718235475259999 -0.014172839696618783 0.04940593456765052 128 127 128 0.26 74 0 75 0 76 0 
307 0.9473152758040473 -0.009729873760557894 0.046892062686069824 110 108 105 0.38 74 0 75 0 76 0 77 0 
308 0.6344449969809702 -0.008979252378620364 0.05852174303800384 130 130 127 0.33 74 0 75 0 76 0 
309 0.40771199063860886 -0.45692787288441683 0.17072105438398744 88 86 83 0.23 74 0 75 0 76 0 
310 0.45048764245176853 -0.029058458460914538 0.04118884777380849 164 166 164 1.06 74 0 75 0 76 0 
311 -1.6604061326980137 -0.032665207551247605 0.07865442122877031 175 198 221 0.39 74 0 75 0 76 0 77 0 78 0 79 0 
312 0.7257684325351923 -0.02346663757054057 0.04539468238045252 132 122 126 0.56 74 0 75 0 76 0 
313 1.0225883103756213 -0.015774150199577675 0.04935697576319198 99 87 76 0.81 74 0 75 0 76 0 
314 1.010672542840051 -0.014336523421077052 0.052704875590113165 116 106 94 0.48 74 0 75 0 76 0 
315 0.37814104573182983 -0.016093700666767463 0.07356548955244646 113 109 110 0.29 74 0 75 0 76 0 
316 0.5144589488124096 -0.03319300209249457 0.04489699940587233 134 135 120 0.41 74 0 75 0 76 0 77 0 
317 0.40349667892724883 -0.3551831123152246 -0.5308552999620724 61 58 39 0.8 74 0 75 0 76 0 
318 0.6273817690038817 -0.02845559255335041 0.05573562737403792 127 121 117 0.81 74 0 75 0 76 0 77 0 
319 0.3057438953149205 -0.039986882933047835 0.04617895404754613 86 87 93 0.95 74 0 75 0 82 0 
320 1.0895976068631998 -0.018250251922974386 0.06154122616834279 82 87 88 0.34 74 0 75 0 76 0 
321 0.28601618346140256 -0.37732267232283256 -0.5597271384353228 86 101 53 0.64 74 0 75 0 76 0 
322 0.4300514067619372 -0.060349943276225 0.01888183191264492 124 119 121 1.24 74 0 75 0 76 0 
323 1.0279516162828695 -0.029410077508484234 0.05114361604164763 107 97 92 0.37 74 0 75 0 76 0 
324 0.52557358687984 -0.044070286138697845 0.05189649402153451 110 107 106 0.61 74 0 75 0 76 0 77 0 
325 0.46044184471484484 -0.446032681788083 0.1374763682645863 74 78 57 0.68 74 0 75 0 76 0 
326 1.007375260537102 -0.032772848031082547 0.05691846369738629 143 131 133 0.26 74 0 75 0 76 0 
327 -1.6557525554699002 -0.07265731618699167 0.09024656286151433 168 197 222 0.48 74 0 75 0 76 0 77 0 78 0 79 0 
328 0.756855599508528 -0.04083973325867574 0.05919023285582892 120 111 113 0.4 74 0 75 0 76 0 77 0 
329 0.5896939497324715 -0.040473116961517966 0.07230491833819075 147 151 146 1.34 74 0 75 0 76 0 77 0 
330 0.2727602105132275 -0.39892807676974695 -0.5749087012805725 48 43 32 0.57 74 0 75 0 76 0 
331 0.5116741877569628 -0.04897357752706918 0.07192433483647642 141 140 123 0.35 74 0 75 0 76 0 77 0 
332 1.0843650970554548 -0.040592015184988714 0.06060930170021228 142 129 124 0.31 74 0 75 0 76 0 
333 0.44297902914740683 -0.0725474779569315 0.04192079639726076 117 131 127 0.42 74 0 75 0 77 0 
334 -1.6560489277166133 -0.09835934958861746 0.10035529586368197 191 207 229 0.56 74 0 75 0 76 0 77 0 78 0 79 0 
335 -1.7187750879982862 -0.10151404177791978 0.10292946166570305 165 178 199 0.35 74 0 75 0 76 0 77 0 78 0 79 0 
336 0.5929587874367979 -0.06220307818535659 0.06357489546670392 124 120 118 0.33 74 0 75 0 76 0 
337 0.4219735287643339 -0.6512461599337276 -0.5455389265717359 52 58 40 1.4 74 0 75 0 76 0 
338 0.5547046438659093 -0.06390684559030788 0.06626307897925665 110 114 98 0.4 74 0 75 0 76 0 77 0 
339 0.24308113983343715 -0.417050506863326 -0.582647813364209 141 129 56 0.79 74 0 75 0 76 0 
340 0.5228708917624738 -0.07046651663589237 0.061982377446933246 115 107 104 0.56 74 0 75 0 76 0 77 0 
341 0.7104841222422713 -0.06402520625237099 0.06266304422142888 126 113 114 0.57 74 0 75 0 76 0 
342 0.33246109430747106 -0.7205699391854948 -0.7349747102966258 127 133 102 0.42 74 0 75 0 76 0 
343 -1.018375430617434 -0.6134118384802029 0.2763962458651088 95 111 108 0.86 75 0 76 0 78 0 79 0 80 0 
344 0.4830063372995157 -0.07400860003732482 0.06298816317942624 133 129 127 0.33 74 0 75 0 76 0 77 0 
345 -1.7227700185987471 -0.1279835986944397 0.08720396193356938 101 82 102 0.31 74 0 75 0 76 0 77 0 
346 0.6502364629035888 -0.06823461389948873 0.0675221217591111 142 140 143 0.56 74 0 75 0 76 0 
347 0.6303751591417521 -0.07363666684339243 0.06359492366364927 143 144 143 0.35 74 0 75 0 76 0 
348 0.6133221902037782 -0.07496374457435624 0.06705056602975823 156 156 158 0.34 74 0 75 0 76 0 
349 -1.7126251880285421 -0.15888505246373394 0.051249806131921094 126 115 118 0.46 74 0 75 0 76 0 77 0 78 0 
350 1.0901469674263833 -0.05673855488165973 0.06859910983630257 139 122 114 0.39 74 0 75 0 76 0 
351 1.0740761291129313 -0.059862090095007675 0.06559207974761039 129 115 113 0.5 74 0 75 0 76 0 
352 0.11439683897667308 -0.42441521629029 -0.5662393082835826 154 158 72 1.28 74 0 75 0 76 0 77 0 
353 0.4336908692191348 -0.42036183499058544 0.14102812665896147 125 126 121 0.78 74 0 75 0 76 0 
354 1.048490295055478 -0.061152941255005214 0.07227898205244365 105 86 87 0.21 74 0 75 0 76 0 
355 0.6886409655891002 -0.07650637501438351 0.06780605213094448 128 124 124 0.57 74 0 75 0 77 0 
356 0.5535588181840166 -0.08872317430836538 0.060046549490382795 147 140 141 0.43 74 0 75 0 76 0 
357 -1.486957322490942 -0.16337848647770598 0.059355411872333175 131 105 101 0.28 74 0 75 0 76 0 77 0 78 0 
358 0.5970459996746181 -0.08665265163858184 0.07443777568246057 126 116 116 0.33 74 0 75 0 76 0 
359 0.43243014883973996 -0.09536060325296139 0.06900237615068905 116 111 116 0.22 74 0 75 0 77 0 
360 0.667830682298431 -0.08807225445267369 0.07043300902815686 133 133 130 0.22 74 0 75 0 76 0 77 0 
361 0.1081299049719675 -0.4523661064487591 -0.5990380857270745 138 157 135 0.32 74 0 75 0 76 0 77 0 
362 0.6307798673846612 -0.09184080254842852 0.06986563458591855 130 131 129 0.4 74 0 75 0 76 0 
363 0.4990420656520842 -0.39348373649519397 0.1524978734814577 52 43 42 0.39 74 0 75 0 76 0 
364 0.28824009848319276 -0.7197268100496141 -0.7484697818720383 138 147 54 0.44 74 0 75 0 76 0 
365 0.9041275671979592 -0.07784134628308023 0.08086059293826864 101 100 105 1.13 74 0 75 0 76 0 77 0 
366 0.6828642145057962 -0.08811717729200527 0.07374345083597422 151 150 149 0.34 74 0 75 0 76 0 77 0 
367 0.6484964562778643 -0.09041720564530546 0.07366460106483075 128 122 122 0.52 74 0 75 0 76 0 
368 0.5193464516536361 -0.09781859719007849 0.07142744806146739 106 95 98 0.28 74 0 75 0 76 0 77 0 
369 0.10981998564098672 -0.46804253543473395 -0.6243876828026358 189 183 179 0.51 74 0 76 0 77 0 
370 1.0937983718451054 -0.07454884312130643 0.07622743798982468 95 84 83 0.18 74 0 75 0 76 0 
371 0.41053147912998667 -0.40059616384640984 0.15717316189601593 69 70 74 0.07 74 0 75 0 76 0 
372 1.0769921018410205 -0.08123567974261457 0.06908697625641347 53 48 47 0.26 74 0 75 0 76 0 
373 0.08611878211708335 -0.4713114155662269 -0.618095930331096 171 169 142 0.49 74 0 75 0 76 0 77 0 
374 1.0535170379137657 -0.08323107479906722 0.07191217320501364 38 36 38 0.57 74 0 75 0 76 0 
375 0.9759942608414838 -0.08492323159902375 0.07487350393978387 113 111 109 0.37 74 0 75 0 76 0 77 0 
376 0.9597218355637211 -0.09079508095986208 0.06869065022430387 135 138 138 0.49 74 0 76 0 77 0 
377 0.6295635284151493 -0.10583602795881415 0.07819711990219069 114 103 99 0.5 74 0 75 0 76 0 77 0 
378 0.6133974726892856 -0.110961113283819 0.07189786752298977 142 146 161 0.23 74 0 75 0 76 0 
379 -1.4522885032972157 -0.6310720916384976 0.1923131334846102 105 111 91 0.61 74 0 76 0 79 0 
380 0.2520379066828776 -0.4293048419514385 -0.536212219834368 85 86 73 0.69 74 0 76 0 77 0 
381 0.6621608099399616 -0.10935807348552991 0.07457529889508008 144 143 142 0.41 74 0 75 0 76 0 77 0 
382 0.5403927978299919 -0.11757201234682245 0.07498129018416932 138 134 137 0.37 74 0 75 0 76 0 
383 0.470950701924137 -0.38484041368150335 0.13628445738971662 115 117 119 0.69 74 0 75 0 76 0 
384 0.4257817392961383 -0.38634646179360355 0.14906991221883548 64 65 60 0.26 74 0 75 0 76 0 
385 0.40505885337930536 -0.3883646782273601 0.14882463029163384 60 60 58 0.53 74 0 75 0 76 0 
386 0.7667500833574497 -0.11387593193408738 0.07486427381994165 121 117 123 0.32 74 0 75 0 76 0 77 0 
387 0.29358709855954523 -0.13793515796341166 0.07711696748827146 117 118 118 0.47 74 0 75 0 82 0 
388 0.7271642954608075 -0.11800386915484293 0.07785157824981548 122 114 116 0.33 74 0 75 0 76 0 77 0 
389 1.091391100057713 -0.07738342104488508 0.12591224842479676 77 69 60 0.54 74 0 75 0 76 0 
390 0.6438242895143762 -0.1257289801582459 0.08150513232646484 120 119 122 0.49 74 0 75 0 76 0 77 0 
391 0.6893566390832705 -0.12356763042972851 0.08379236448444871 23 22 25 0.38 74 0 76 0 77 0 
392 0.6280949505899456 -0.1281902926532585 0.08229972206384772 84 77 73 0.52 74 0 75 0 76 0 77 0 
393 0.6119405232605494 -0.13093651452117247 0.08151576292170404 105 102 102 0.5 74 0 75 0 76 0 77 0 
394 0.23514586585855002 -0.14769263433509544 0.08216372258240545 78 78 86 0.61 74 0 75 0 82 0 
395 0.11195732224333971 -0.4762031683747995 -0.5804076681262091 169 166 123 0.41 74 0 75 0 76 0 77 0 
396 1.0292732119143455 -0.08958399440753732 0.12379994236680458 54 45 38 0.35 74 0 75 0 76 0 
397 0.5318697703050647 -0.4398002277736148 -0.5448708928030932 119 118 102 0.73 74 0 75 0 76 0 
398 0.73392243781604 -0.12001415595501802 0.09842943072226529 122 122 123 0.69 74 0 75 0 76 0 77 0 
399 0.5763221373090147 -0.13810047812546108 0.0772967634153976 61 58 63 0.54 74 0 75 0 76 0 
400 -1.3447991268447002 -0.23492228253707154 0.08293358897487835 53 44 50 0.54 74 0 75 0 76 0 77 0 78 0 79 0 
401 0.7183079379590895 -0.13096194689863094 0.08194597561435257 95 90 92 0.39 74 0 75 0 76 0 77 0 
402 0.9631002033110789 -0.12016487216676713 0.08031017093126991 77 74 79 0.26 74 0 75 0 76 0 77 0 
403 0.9323816079293483 -0.12121146979683019 0.08314337277240957 101 91 91 0.36 74 0 75 0 76 0 77 0 
404 0.26094551147256684 -0.44792904251709653 -0.5221101340033951 98 95 52 1.05 74 0 75 0 77 0 
405 0.8582447687300427 -0.1230054224548849 0.09165821666944263 109 99 95 0.97 74 0 75 0 77 0 
406 0.4526629335128929 -0.36820332633087005 0.1487625838157718 117 123 124 0.64 74 0 75 0 76 0 
407 -1.4529713399055952 -0.5960576042984049 0.17969360150496305 152 162 184 0.64 74 0 75 0 76 0 77 0 79 0 
408 -1.4858310438890738 -0.2686491355859818 0.05434595572050949 118 106 118 0.18 74 0 75 0 76 0 
409 -0.027909689760266365 -0.48270937926294744 -0.5520502344298901 166 164 143 0.88 74 0 75 0 76 0 
410 0.9863510453746287 -0.12166389444028017 0.09050149704512211 112 113 116 0.53 74 0 75 0 76 0 77 0 
411 -1.2012139055077213 -0.37553767072468514 -0.17762826756093508 152 166 141 0.48 74 0 75 0 77 0 
412 -0.933075860515398 -0.23513090318354257 0.08692173907862388 144 143 145 0.69 75 0 76 0 77 0 78 0 79 0 80 0 
413 -1.0519220862207574 -0.530755760939087 0.22724510071047166 160 174 194 0.88 75 0 76 0 77 0 79 0 80 0 82 0 
414 0.6101602889028247 -0.12843729970173912 0.14868344201471562 63 59 47 0.49 74 0 75 0 76 0 
415 0.5478361872977542 -0.1387656218630301 0.14142764296853683 72 66 53 0.46 74 0 75 0 76 0 
416 0.9802064802599142 -0.14069741327734153 0.08506543622013796 116 113 115 0.47 74 0 75 0 76 0 77 0 
417 0.7306205137211037 -0.15488084037381353 0.08923137247089263 125 121 119 0.64 74 0 75 0 76 0 77 0 
418 0.4834648332099485 -0.14439741168439846 0.14616629848150042 64 55 42 0.69 74 0 75 0 76 0 
419 0.7128198702656516 -0.15585541711786255 0.09256717286198146 118 112 109 0.36 74 0 75 0 76 0 77 0 
420 0.4077667536152154 -0.36172740950055715 0.13564233356277855 105 105 102 0.52 74 0 75 0 76 0 
421 -1.1275877840009747 -0.3979679063283844 -0.18850113801881685 138 134 113 0.78 74 0 75 0 76 0 77 0 
422 0.5453611642764101 -0.48604173669589923 -0.5898238394732012 102 115 92 0.38 74 0 75 0 76 0 
423 0.9323052954232907 -0.1485623245927555 0.09124785294793059 88 100 110 0.27 74 0 75 0 76 0 77 0 
424 -1.5237726711195898 -0.30892749671176434 0.09638197699078699 120 98 108 0.14 74 0 75 0 76 0 
425 0.8382937222096389 -0.15819317927597487 0.09470001865037059 100 102 107 0.62 74 0 75 0 76 0 77 0 
426 0.0646673048292642 -0.5361493601260181 -0.6002908077510027 151 163 87 1.3 74 0 75 0 76 0 
427 0.8635423378647487 -0.16981983946916787 0.09315133464660974 107 106 108 0.36 74 0 75 0 76 0 77 0 
428 1.0991209865878706 -0.14549549553192592 0.14625588165047398 127 138 142 0.39 74 0 75 0 76 0 
429 1.0609430573810597 -0.15926750968807823 0.1253343153005848 131 135 138 1.21 74 0 75 0 76 0 
430 0.8015953482500562 -0.19020200629001133 0.09896555904312043 111 117 128 0.29 74 0 75 0 76 0 77 0 
431 1.0369146813049182 -0.15076730283132495 0.1525218716379939 102 103 104 0.32 74 0 75 0 76 0 
432 0.9964278477910984 -0.17981886830717625 0.10331089099611468 135 135 138 0.53 74 0 75 0 76 0 
433 0.4878506216333618 -0.32134901128822235 0.13868894856317926 79 66 68 0.44 74 0 75 0 76 0 
434 0.458128069267165 -0.3275527788987941 0.13308226154006153 116 119 123 0.91 74 0 75 0 76 0 
435 0.865183157411175 -0.19156488432528984 0.1109480597713115 114 110 106 1.26 74 0 75 0 76 0 77 0 
436 -1.4854379030176235 -0.3697960068860905 0.12505596229560467 148 132 140 0.47 74 0 75 0 76 0 77 0 
437 0.8137231943644907 -0.20226174106268605 0.10120645871748835 143 137 129 0.39 74 0 75 0 76 0 77 0 
438 0.7321027510772011 -0.20886434790329264 0.10278542824247561 93 92 90 0.3 74 0 75 0 76 0 77 0 
439 0.7471693196341058 -0.209219435777925 0.10475608081727739 146 141 133 0.39 74 0 76 0 77 0 
440 0.6981019119419387 -0.212519847586629 0.11131361947517027 68 65 71 0.65 74 0 75 0 77 0 
441 0.9789223059994652 -0.19535920603498652 0.10049714100618035 107 107 106 0.94 74 0 75 0 76 0 77 0 
442 0.5893905784385512 -0.20595915592085579 0.15233391327950008 135 148 153 0.11 74 0 75 0 76 0 
443 0.7266584738192507 -0.29123148318272163 0.13422306206625922 100 102 104 0.97 74 0 75 0 76 0 77 0 
444 1.0236930224730816 -0.1893199283930757 0.11009653066887504 58 46 51 0.68 74 0 75 0 76 0 
445 0.960145160657075 -0.19995312855901856 0.10325259725449154 72 59 59 0.29 74 0 75 0 76 0 77 0 
446 0.5185935471172722 -0.20843108624821685 0.16688371980030325 131 140 145 0.3 74 0 75 0 76 0 
447 0.49527036387310464 -0.21674976488978906 0.1523056773321878 99 103 105 0.55 74 0 75 0 76 0 
448 0.9426682637172052 -0.20848632014451962 0.09014722431728872 122 121 122 0.66 74 0 75 0 76 0 
449 0.9236243582319001 -0.20716108615985368 0.09612289486790226 68 65 69 0.53 74 0 76 0 77 0 
450 0.292632728383011 -0.5567583777705667 -0.6067183459796319 155 163 101 1.23 75 0 76 0 77 0 
451 0.7884764451459472 -0.21437426128775625 0.11429753967387057 109 109 109 0.92 74 0 75 0 76 0 77 0 
452 0.7483791467670173 -0.22232498445684454 0.1068255170784691 128 125 121 0.46 74 0 76 0 77 0 
453 0.7283775681853537 -0.2275193505500681 0.10477801072980641 116 112 114 0.71 74 0 75 0 76 0 77 0 
454 0.8612978667029487 -0.22753565310475865 0.10313782640333313 162 162 160 0.25 74 0 76 0 77 0 
455 0.837291127661935 -0.22418044291353995 0.1152715239922637 106 101 102 0.37 74 0 75 0 76 0 77 0 
456 0.820318501690775 -0.22780585925338903 0.10944665122461172 115 116 118 0.62 74 0 76 0 77 0 
457 0.7633074383786138 -0.2372742826128538 0.10701735610953955 107 113 126 0.66 74 0 75 0 76 0 77 0 
458 0.2508928783594221 -0.6121680329379856 -0.6947430646428949 109 129 69 0.69 74 0 75 0 76 0 
459 0.167252455295394 -0.6284967590931965 -0.7190142741443868 155 171 76 0.69 74 0 75 0 76 0 
460 0.1726054442371991 -0.6459050998115372 -0.7598284640305177 161 181 128 0.83 74 0 75 0 76 0 
461 0.7404790407101873 -0.23692679471242126 0.11350625755137855 141 140 140 0.67 74 0 75 0 76 0 77 0 
462 0.5008144249725431 -0.283713570019431 0.1769136201577739 108 114 120 0.33 74 0 75 0 76 0 
463 0.9982758395250158 -0.2198756582426494 0.10674191944269307 67 67 70 0.46 74 0 75 0 76 0 
464 0.8792279760797321 -0.26135362446607213 0.12502333000593513 74 81 62 0.69 74 0 75 0 76 0 77 0 
465 0.741897101087494 -0.27870480558869715 0.12278636035876822 113 111 105 0.58 74 0 75 0 76 0 77 0 
466 0.7067761142810429 -0.280821167578279 0.12595777331276947 107 101 105 1.55 74 0 75 0 76 0 77 0 
467 0.5624223099711602 -0.2757651281371122 0.17849540760177973 133 149 163 0.54 74 0 75 0 76 0 
468 0.9836996865906622 -0.2231155871087861 0.11168180722914522 115 113 111 0.71 74 0 75 0 76 0 77 0 
469 0.8506279213705221 -0.23365881233597002 0.12545076576746528 108 104 105 0.65 74 0 75 0 76 0 77 0 
470 0.8209599539390324 -0.24099107078951656 0.11500870340689939 103 98 95 0.67 74 0 75 0 76 0 77 0 
471 0.7805415241366755 -0.2435734551099158 0.11920846035850063 134 128 124 0.52 74 0 75 0 76 0 77 0 
472 0.18093773103810867 -0.6417762681435862 -0.7318417075235546 167 183 119 0.96 74 0 75 0 76 0 
473 0.48517865348645917 -0.29544563571285964 0.12877852541624835 101 93 93 0.44 74 0 75 0 76 0 
474 0.24884522216408822 -0.6204737294708693 -0.6844387367392324 121 132 81 0.46 74 0 75 0 76 0 
475 0.9475830176346771 -0.24460028766160444 0.10415323926850517 103 104 104 0.81 74 0 75 0 76 0 
476 0.9229716195954136 -0.2545691331879715 0.12592653566198697 78 71 68 0.91 74 0 75 0 76 0 77 0 
477 1.0007339967904352 -0.23623259956272905 0.11340521742755483 134 134 134 1.12 74 0 75 0 76 0 
478 0.9013985256843529 -0.24731761144673856 0.1119727002330686 122 113 110 0.39 74 0 75 0 76 0 77 0 
479 0.6234461670716029 -0.24877063054264906 0.17315895054676123 118 131 141 0.51 74 0 75 0 76 0 
480 1.0730563109039726 -0.2092351041397527 0.1897713889546755 127 136 146 0.48 74 0 75 0 76 0 
481 0.7949853921184586 -0.25832214212631993 0.11865117893085442 66 64 59 0.23 74 0 75 0 76 0 77 0 
482 0.7805823394939349 -0.2620851623630463 0.11339649007593255 107 107 106 0.2 74 0 76 0 77 0 
483 0.755862254967258 -0.26286773697234933 0.11797963727482008 106 101 99 0.22 74 0 75 0 76 0 77 0 
484 1.1071877736182312 -0.2149591766765243 0.1623163195484416 137 148 163 0.24 74 0 75 0 76 0 
485 0.4207908395485547 0.4840823149716854 -0.09524365548463898 130 142 88 1.36 74 0 76 0 77 0 
486 0.07337106644830677 0.3787535206580037 -0.057965686773413516 92 95 107 0.78 74 0 75 0 76 0 78 0 79 0 82 0 
487 0.8790030956086954 -0.22078121530598988 0.10686788721910823 107 105 106 0.72 74 0 75 0 76 0 77 0 
488 1.025254595895573 -0.20074058630479624 0.11463668491541812 56 47 54 0.52 74 0 75 0 76 0 
489 -0.8768796431833898 0.4064232180188003 -0.07739451889129079 129 124 126 0.57 74 0 75 0 76 0 77 0 78 0 79 0 80 0 
490 0.8437016397825592 -0.21224789463474703 0.10139988298418823 100 98 96 0.54 74 0 75 0 76 0 77 0 
491 -0.7664797440826903 0.3600308148081304 -0.06532255914821627 144 139 139 0.4 74 0 75 0 76 0 77 0 78 0 79 0 80 0 82 0 
492 0.3147713151664965 0.29880277348101425 -0.020141576200250366 119 119 119 0.94 74 0 75 0 76 0 82 0 
493 -1.3309201697301958 0.3816848367135064 -0.08276470948618675 65 67 75 0.7 74 0 75 0 76 0 77 0 78 0 79 0 80 0 
494 0.4302917426856817 -0.3372281855365167 0.11341128805038014 103 103 101 0.88 74 0 75 0 76 0 
495 -0.1019711566796751 -0.9022184748610891 -0.41126959879816827 74 89 95 1.09 74 0 75 0 76 0 77 0 
496 0.37591134588967867 0.2496216660354397 -0.019535086164080173 148 142 138 0.82 74 0 75 0 76 0 
497 0.47174057071241027 -0.7546722485416428 -0.41236592799054295 38 48 23 0.66 74 0 75 0 76 0 
498 0.4246757867732309 0.21127859753838776 -0.0028313108030566525 60 46 49 0.39 74 0 76 0 82 0 
499 0.8708709541362845 0.16569397442462178 0.0050702667770159415 134 121 123 0.65 74 0 75 0 76 0 77 0 
500 -1.4180736520444184 0.2033267036410719 -0.04857866407665057 100 116 131 0.61 74 0 75 0 76 0 77 0 78 0 80 0 
501 0.7189694804995055 0.12752077691109395 -0.002988363527479443 147 144 146 1.4 74 0 75 0 76 0 77 0 
502 0.46619022617545747 -0.5516731292377159 0.19342263046111285 74 79 74 0.48 74 0 75 0 76 0 77 0 
503 0.4983386716980027 -0.5504653425887048 0.18602952650809756 85 91 93 1.01 74 0 75 0 76 0 77 0 
504 0.8475596504144598 0.11323718754932938 0.03246385305343713 149 152 157 1.06 74 0 75 0 76 0 77 0 
505 0.9708918699938107 0.10697705717674966 0.02442069092023358 144 142 136 0.46 74 0 75 0 76 0 77 0 
506 0.6933738291561342 -0.15718713262869016 0.09670984173372377 34 38 45 0.59 74 0 75 0 76 0 77 0 
507 0.8118541696942447 0.10499331888996671 0.04474085601636224 122 127 131 1.46 74 0 75 0 76 0 77 0 
508 1.061343185319375 0.0871508768366703 0.028514044258533655 150 147 143 0.41 74 0 75 0 76 0 
509 0.47457553169486233 -0.2846723216599293 -0.5738840440065407 77 102 35 0.71 74 0 75 0 76 0 77 0 
510 0.744968243189378 -0.1521485092620272 0.09356897416727161 119 120 119 1.01 74 0 75 0 76 0 77 0 
511 0.7108556503916521 0.07190487236049237 0.016905635182697498 128 126 129 0.51 74 0 75 0 76 0 
512 -1.3616480490130876 0.1216397165920313 -0.0042849669267037704 122 123 135 0.52 74 0 75 0 76 0 77 0 78 0 79 0 80 0 
513 1.047133360847651 0.07552063969872219 0.03459500061004395 92 92 89 0.34 74 0 75 0 76 0 
514 0.6208729077303129 0.055914419363998324 0.03484847795757329 114 110 109 0.23 74 0 75 0 76 0 77 0 
515 0.6386926781264048 0.019682792052408943 0.028220166454137274 119 109 102 0.49 74 0 76 0 77 0 
516 0.48835389644485727 -0.48225420026140675 0.16166443229186278 104 111 110 0.92 74 0 75 0 76 0 
517 0.6023268767031682 0.023671011830564276 0.040548580740105145 129 125 118 0.24 74 0 75 0 77 0 
518 0.7432764407217971 0.02970751417968412 0.04817251258130817 106 98 103 0.57 74 0 75 0 77 0 
519 0.6946528534637015 -0.002091326457777015 0.0322470874014682 105 99 99 0.62 74 0 75 0 76 0 
520 0.42431693127008185 -0.15343668874074207 0.07748556503451498 111 108 103 0.13 74 0 75 0 76 0 
521 0.04298943968587188 -0.48956233460762244 -0.5963075610589135 142 164 92 0.92 74 0 75 0 76 0 
522 -1.7401188590223877 -0.07386440442495268 0.04914654813812902 117 116 118 0.47 74 0 75 0 76 0 77 0 78 0 80 0 
523 0.7204000571338414 -0.04846253014351032 0.0569272921136692 128 126 128 0.56 74 0 75 0 76 0 
524 0.457097363991368 -0.06107783286545381 0.0643251806640186 109 105 101 1.21 74 0 75 0 76 0 77 0 
525 0.4679271928531076 -0.07538254384111995 0.06747052690198663 143 140 114 0.79 74 0 75 0 76 0 77 0 
526 0.5785809603394594 -0.07530808011476398 0.06515409876075573 84 66 67 0.44 74 0 75 0 76 0 
527 0.27927812362503857 -0.42367347158177526 -0.5354109294898124 123 133 91 1.46 74 0 76 0 77 0 
528 0.5334384863482878 -0.4968342844666518 -0.41680402342721745 122 133 82 0.47 74 0 75 0 76 0 
529 -1.2466120545037027 -0.166165658445771 0.07752463326373604 127 131 137 0.36 74 0 76 0 77 0 78 0 79 0 
530 0.8382159267644729 -0.2530717282421704 0.11678115658422472 80 78 78 0.09 74 0 76 0 77 0 
531 0.49378712138351477 -0.09276982540926079 0.07071547777910236 135 132 134 0.34 74 0 75 0 76 0 77 0 
532 0.2793425464381165 -0.12060262714196587 0.07488873707747024 121 122 126 0.23 74 0 75 0 82 0 
533 0.9710661789971335 -0.0633467872870006 0.06446208187574198 110 106 106 0.82 74 0 75 0 76 0 77 0 
534 -0.15358981367588675 0.4828559197162807 -0.09230247246610768 132 116 107 0.55 74 0 75 0 76 0 77 0 78 0 79 0 82 0 
535 0.1931973830970008 -0.4205808381762134 -0.5673335347012052 75 87 50 1.08 74 0 76 0 77 0 
536 0.7816328055215438 -0.23411043887185876 0.11381337972499939 125 122 123 1.19 74 0 75 0 76 0 77 0 
537 0.3279289848525161 0.4079404400566873 -0.06779188195056562 141 152 151 0.34 74 0 76 0 77 0 
538 0.468356763908534 0.36779033365144664 -0.05067054465742604 149 190 216 0.68 74 0 75 0 76 0 
539 0.9661266863183695 -0.09530052103426799 0.09331722293044331 118 114 111 1.12 74 0 75 0 76 0 77 0 
540 -3.328956219896034 1.0036574837689531 0.2801064198194916 240 233 238 1.69 74 0 75 0 76 0 80 0 
541 -1.0585022025395259 0.41908123267653785 -0.08464738487261991 85 99 105 0.83 74 0 75 0 76 0 80 0 
542 -0.472798529940202 0.3777177557586371 -0.06308767893598066 47 38 44 0.71 74 0 75 0 76 0 77 0 78 0 79 0 80 0 82 0 
543 0.9644477185815108 -0.020180444000241576 0.05445602704276942 111 105 100 0.39 74 0 75 0 76 0 77 0 
544 0.7885957553176262 -0.20498541768345668 0.10167070273379819 144 136 129 0.33 74 0 75 0 76 0 77 0 
545 0.20791350818409937 0.28965821268815506 -0.036068077732702264 147 141 139 0.33 74 0 75 0 77 0 
546 0.21266691517464387 -0.8693441376029495 -0.5971171430268081 35 49 22 1.12 74 0 75 0 76 0 
547 0.35665900539655115 0.24325826079674093 -0.025400920651346137 157 159 157 0.62 74 0 75 0 76 0 
548 -1.2674777186616337 0.36836018670141035 -0.06623357070795421 142 133 132 0.66 74 0 76 0 77 0 78 0 79 0 80 0 
549 -1.4107069343996537 0.3422016483393022 -0.0700337548233878 70 56 62 0.55 74 0 75 0 76 0 77 0 78 0 79 0 80 0 
550 0.2078199705285192 0.24130677771316597 -0.02670551251296205 154 154 154 0.29 74 0 75 0 82 0 
551 -0.7904375886430798 0.29717579760358137 -0.047737361664700106 158 147 142 0.42 74 0 75 0 76 0 77 0 78 0 79 0 80 0 82 0 
552 0.16968485028525926 0.24182987985560492 -0.021643871264435788 169 166 167 0.5 74 0 75 0 79 0 82 0 
553 -1.1336971970842138 0.3129999442024375 -0.05757076125785243 83 81 87 0.53 74 0 77 0 79 0 80 0 
554 0.14426849409356896 0.02509364375571077 0.05386073022539195 144 137 135 1.28 74 0 75 0 79 0 
555 0.4021663723725958 0.23058180489216398 -0.0032943551820134864 158 155 156 0.51 74 0 75 0 76 0 77 0 
556 0.3814820162146484 0.220591033123433 -0.015272377846449636 139 147 149 0.36 74 0 76 0 82 0 
557 0.9817597345263451 0.1794055810161376 0.002833262093023148 53 50 60 0.35 74 0 75 0 76 0 
558 0.10850120886562903 0.24004072824958275 0.007543657014171146 148 145 147 0.91 74 0 75 0 82 0 
559 0.945859857704364 0.032524898766898375 0.04084108426390598 146 139 137 0.77 74 0 75 0 76 0 77 0 
560 0.18329899472673417 0.029736299006242445 0.049128092834682224 146 151 153 0.5 74 0 75 0 82 0 
561 0.65171354167362 0.1760311636732406 0.005083514941720768 62 56 69 0.24 74 0 76 0 77 0 
562 0.16493019914108203 0.040247223077677835 0.04600504800880634 159 159 160 0.68 74 0 75 0 82 0 
563 -1.39979626915504 0.03098497986262802 -0.000871565769304361 111 126 137 0.55 74 0 75 0 76 0 77 0 79 0 80 0 
564 0.24133068050784134 -0.1715534167137108 0.08684350944152897 138 134 136 0.24 74 0 75 0 82 0 
565 0.8820767549791348 -0.16881058544519867 0.08947566716186328 114 115 117 0.64 74 0 75 0 76 0 77 0 
566 -1.2217882597858716 0.1863362931610241 -0.018904594289258725 134 131 130 0.53 74 0 76 0 77 0 78 0 79 0 80 0 
567 0.8437897400974326 0.1297282835291877 0.021321024641977715 148 157 169 0.8 74 0 75 0 76 0 77 0 
568 0.320993816380007 0.057151917750975584 0.017679664102663306 82 83 78 0.79 74 0 75 0 76 0 82 0 
569 0.614808706163576 0.1363853750446505 0.04778348961022871 70 85 126 1.43 74 0 75 0 76 0 
570 0.7577024919670687 0.06096194707340563 0.016294749557321797 120 112 106 0.95 74 0 75 0 76 0 
571 0.48284659398096164 0.07127336203167825 0.028584428762888248 47 45 45 0.58 74 0 75 0 76 0 82 0 
572 0.5275388408350451 -0.4901266967247998 0.23236372016441265 53 68 58 0.59 74 0 75 0 76 0 
573 0.7234338943027234 0.09213880661783905 0.018969455500484678 130 128 129 0.25 74 0 76 0 77 0 
574 0.9384213581362906 0.07801999541475213 0.0380994273930626 136 128 123 0.64 74 0 75 0 76 0 77 0 
575 0.6868416803209075 0.08584004961987712 0.044913814424317966 133 131 132 1.52 74 0 75 0 76 0 
576 0.19802850772426772 0.08780459708298813 0.014080793132747793 116 118 130 0.43 74 0 75 0 79 0 
577 -1.4172490346520499 0.12187506467292095 -0.004786081233935757 65 65 78 0.4 74 0 75 0 76 0 
578 -1.663093473823636 -0.16304860272858063 0.08717678887823865 83 76 58 0.87 74 0 75 0 76 0 77 0 
579 0.23573796583396311 -0.7237043398973536 -0.7320397923518773 57 63 26 0.43 74 0 75 0 76 0 
580 0.3805964628648054 0.0788265745307142 0.03466445512740801 118 119 122 0.16 74 0 75 0 76 0 
581 -1.2899040349321163 0.12862632129592239 -0.01636242164291346 160 153 149 0.19 74 0 79 0 80 0 
582 0.7682909153201796 -0.15005682861602496 0.09296032626930018 118 111 104 0.17 74 0 75 0 76 0 
583 0.37173584012297123 0.1324011718792946 0.036941763036871134 151 149 148 0.56 74 0 75 0 76 0 
584 0.4059719417144362 -0.5590534337846179 0.1836058782311163 42 38 34 1.79 74 0 75 0 76 0 77 0 
585 -1.697387012226286 0.21751366111328677 0.008872708543687047 141 177 194 0.18 74 0 75 0 76 0 77 0 78 0 
586 -4.45806752131506 1.6864149899599425 0.4606697471081642 188 177 172 0.99 74 0 75 0 79 0 
587 0.8100611907538342 -0.26454187169913024 0.13750242981926686 115 115 114 0.99 74 0 75 0 77 0 
588 -4.2161898535477995 1.5743227683238776 0.4388937913428086 252 255 255 0.89 74 0 75 0 79 0 
589 1.0618557025055742 -0.05158412743677593 0.08139161899854308 151 145 141 1.38 74 0 75 0 76 0 
590 0.5696537996490527 -0.08033337431780616 0.061085206595703934 149 150 153 0.51 74 0 75 0 76 0 
591 0.3548085020638836 0.4425307987801175 -0.05181769001355985 155 155 142 1.37 74 0 76 0 78 0 
592 0.7230447460944092 0.034126758650394634 0.03458538863204552 106 102 106 0.29 74 0 75 0 76 0 77 0 
593 0.41220785387562797 -0.3765582753799497 0.1347000522351709 78 78 77 0.42 74 0 75 0 76 0 
594 0.7014469867008584 -0.23717662943191037 0.1204817622956651 63 54 56 0.32 74 0 75 0 76 0 
595 0.39006713843812535 -0.16971352699355907 0.053588129075953894 105 106 106 1.07 74 0 75 0 76 0 
596 0.9996191037777522 0.03432508195728545 0.03666157441732887 58 70 90 0.28 74 0 75 0 76 0 
597 -1.869932056230337 0.2763812576536484 -0.11015019598243381 63 61 66 0.22 74 0 75 0 76 0 
598 0.22958845138054151 -0.8910074745477123 -0.372211153843808 78 100 68 0.31 74 0 75 0 76 0 
599 0.05907166364706623 0.4471457490961266 -0.06589043962248242 40 37 44 0.45 74 0 75 0 82 0 
600 0.37211609897424724 0.2552016019256551 0.012640713288737615 143 150 153 1.07 74 0 75 0 76 0 
601 0.42208150200478334 0.22668188816643783 -0.009539319747110753 109 106 85 0.61 74 0 75 0 76 0 77 0 
602 0.4725806781660784 -0.00834706292889198 0.04322274604249321 148 139 138 0.49 74 0 75 0 76 0 
603 0.6121008808494213 -0.004653790565174898 0.04269952296944801 136 134 130 0.76 74 0 75 0 76 0 
604 0.7975308359205895 -0.23124879356223296 0.10526610667214831 95 90 83 1.23 74 0 75 0 77 0 
605 0.827453921895392 -0.19526538222757572 0.1106553030007058 98 98 97 0.71 74 0 75 0 76 0 77 0 
606 1.0357250190489218 0.0014186051211015488 0.05612917597662248 111 116 113 0.12 74 0 75 0 76 0 
607 0.5513080820755825 -0.057128772996759815 0.04918326861691069 111 105 105 0.79 74 0 75 0 76 0 77 0 
608 0.6897682137037581 -0.04641898897162155 0.06444559131166239 122 119 121 1.24 74 0 75 0 76 0 
609 -0.6480272786712689 0.3137053551802722 -0.03611153348094076 111 131 150 1.1 74 0 75 0 77 0 
610 -0.4291588730710417 0.3957878006607225 -0.06816686951976036 141 131 132 0.69 74 0 75 0 76 0 77 0 78 0 79 0 80 0 82 0 
611 0.4079352309535078 0.3454755468891575 -0.007036550398164643 61 57 65 0.94 74 0 75 0 76 0 77 0 
612 -0.6681926645394989 0.42882430107125125 -0.07860135837295656 138 122 117 0.38 74 0 75 0 76 0 77 0 78 0 79 0 80 0 82 0 
613 0.48302893889464715 -0.43300278312532914 0.1751487537450438 105 118 95 1.44 74 0 75 0 76 0 
614 0.6681592847568755 -0.12035840028303144 0.08523748725707847 120 92 95 0.34 74 0 75 0 76 0 77 0 
615 0.6562128287623866 -0.12723928430181938 0.07518744896210805 87 66 69 0.93 74 0 75 0 76 0 77 0 
616 0.4811469334387617 -0.5027099009698424 -0.5177187542831581 97 98 99 0.59 74 0 75 0 76 0 
