# 3D point list with one line of data per point:
#   POINT3D_ID, X, Y, Z, R, G, B, ERROR, TRACK[] as (IMAGE_ID, POINT2D_IDX)
# Number of points: 397, mean track length: 3.22
0 -0.27707864157470485 0.2551918470007911 0.5450816669086398 129 115 104 1.12 91 0 93 0 95 0 
1 -0.3240128892733032 0.25313180501447585 0.4990767577631776 136 124 122 0.33 91 0 93 0 94 0 95 0 
2 0.0072024040204570206 0.42435886579337 0.4870204329035881 131 131 129 0.3 91 0 93 0 94 0 
3 0.3469080453855633 0.6502197781735924 0.47567652278341277 60 60 59 0.28 91 0 93 0 94 0 
4 0.07214380790373731 0.4529341018129799 0.486870988572905 95 92 95 0.46 91 0 93 0 94 0 95 0 
5 -0.2209472132408843 0.08290148219358684 0.5126624057833309 136 134 131 0.25 91 0 93 0 94 0 
6 -0.1693521584208031 -0.002177714545111953 0.5293442724096322 136 131 122 0.21 91 0 93 0 94 0 
7 0.040878546245932235 0.4451606221740584 0.43322019300652226 74 78 85 0.37 91 0 93 0 94 0 
8 -0.3492093292896832 0.24583903356035164 0.4274924925792625 142 138 135 0.64 91 0 93 0 94 0 95 0 
9 -0.3571855278197762 0.24585323304058615 0.4150410954671593 144 139 136 0.54 91 0 93 0 94 0 
10 -0.2156847073257575 0.05155036194960039 0.48125790267390056 137 125 114 0.38 91 0 93 0 94 0 95 0 
11 -0.2949736623573891 0.1601201068400736 0.44183106836659025 111 116 124 0.27 91 0 93 0 94 0 95 0 
12 -0.3351268213295384 0.20291412386504126 0.3993431152899607 155 154 155 0.4 91 0 93 0 94 0 95 0 
13 -0.06174397804626297 -0.1992453546929197 0.5279534746576451 127 124 124 0.43 91 0 93 0 94 0 95 0 
14 0.05032707891312649 -0.36208686620111086 0.5631861771206421 139 120 111 0.34 91 0 93 0 94 0 
15 0.4108002502273935 0.6402345387858358 0.3451516555546894 106 106 107 0.23 91 0 93 0 94 0 95 0 
16 0.6959127379548429 0.861767927093574 0.31741412035521277 35 33 36 0.41 91 0 93 0 94 0 
17 -0.1462352645526508 0.3427506936660748 0.3666120528907437 97 91 93 1.2 91 0 93 0 94 0 
18 0.6264249238733748 0.8332046864144925 0.29579868848873714 70 69 69 1.89 91 0 93 0 95 0 
19 -0.24725871233677488 0.3053629047912584 0.3492284226004234 91 98 111 0.54 91 0 93 0 94 0 95 0 
20 -0.07129080631321383 -0.20399656567849467 0.4833620014656641 144 134 125 0.9 91 0 93 0 94 0 
21 0.6974248705762447 0.8685898287625008 0.28234863823137535 40 43 48 0.25 91 0 93 0 94 0 
22 0.25134458558618533 0.5624848550280791 0.31743349861456327 66 57 61 0.34 91 0 93 0 94 0 95 0 
23 -0.3393276733719848 0.183839724435224 0.36450213303805556 149 140 132 0.41 91 0 93 0 94 0 95 0 
24 0.6921211421773621 0.8125760960081089 0.29043914941930926 92 95 95 0.48 91 0 93 0 94 0 
25 0.06525171220033599 0.4289681240219255 0.3310980188543151 126 147 169 0.35 91 0 93 0 94 0 95 0 
26 -0.19707113189515013 0.32942836570783196 0.3376817436946613 107 116 125 0.44 91 0 93 0 94 0 95 0 
27 0.3563927444417303 0.6267798304467919 0.29507064618625134 52 44 46 0.65 91 0 93 0 95 0 
28 -0.34570120861864284 0.21607201539719945 0.33993815150850604 152 151 146 0.26 91 0 93 0 94 0 
29 0.6019584402053377 0.7490595858850683 0.26604248043737844 83 82 83 0.58 91 0 93 0 94 0 95 0 
30 -0.20025910075174114 0.34041074249468417 0.30572445382337876 62 73 90 0.39 91 0 93 0 94 0 
31 -0.05561110563600291 0.36624474752344305 0.30425692394025505 134 160 189 0.45 91 0 93 0 94 0 
32 -0.3444474831335782 0.16623868080310011 0.33407154433557484 157 147 137 0.3 91 0 93 0 94 0 95 0 
33 -0.38960243195218736 0.2342973603905799 0.3115761491813258 146 142 139 0.45 91 0 93 0 94 0 
34 -0.29554837639433984 0.10379846672772886 0.3453514215197606 143 135 128 0.56 91 0 93 0 94 0 
35 0.11074029424989096 -0.4980608119805211 0.49965391665309755 138 160 168 0.42 91 0 93 0 94 0 
36 -0.00863141427982761 0.3937681746242424 0.284496553165523 139 171 193 0.56 91 0 93 0 94 0 
37 0.5594697791497873 0.727388961068976 0.2227010865616179 53 67 82 0.48 91 0 93 0 94 0 95 0 
38 3.2332653019570605 2.4915720847069323 -0.041582336792758356 222 221 227 0.52 91 0 93 0 94 0 
39 -0.3791737269758766 0.20397038714994575 0.29638303627507745 138 144 148 0.47 91 0 93 0 94 0 95 0 
40 0.14427900326592358 -0.5841419788380503 0.48643134075044836 81 91 85 0.53 91 0 93 0 94 0 95 0 
41 0.5651937137991998 0.6891793889161034 0.209255168707293 60 59 59 0.59 91 0 93 0 94 0 95 0 
42 -0.32924471724007276 0.27840927162067863 0.2698236763443105 92 98 110 0.38 91 0 93 0 94 0 
43 -0.2743113215103463 0.3057353026271361 0.2589572005425469 108 104 104 1.43 91 0 93 0 94 0 95 0 
44 0.672824691486388 0.7878521406091256 0.18133695289594187 55 42 41 0.2 91 0 93 0 94 0 
45 -0.253048617580681 0.0019790391552466646 0.31887901999868795 147 146 141 0.41 91 0 93 0 95 0 
46 0.1650973538801992 -0.5587838003539555 0.45793369186138366 55 54 51 0.42 91 0 93 0 94 0 
47 0.3926919697043072 -0.993520939773991 0.5567157885713727 203 196 190 0.14 91 0 93 0 95 0 
48 0.8373849945972256 0.8712511418497239 0.149857801584951 116 109 110 0.36 91 0 93 0 94 0 
49 -0.0885879148026909 0.36112053141356115 0.23616181671001502 159 190 216 0.68 91 0 93 0 94 0 
50 0.2948328145714598 0.594432567723928 0.17424434449795245 71 76 95 0.46 91 0 93 0 94 0 
51 9.27779324957369 3.5875166761469663 -0.30564804346630914 126 138 152 0.32 91 0 93 0 94 0 
52 0.540753358956565 0.7222927736053831 0.14587126629123026 62 67 73 0.62 91 0 93 0 94 0 95 0 
53 -0.4143232600240174 0.23020824122948758 0.24103356294197353 107 104 103 0.35 91 0 93 0 94 0 
54 0.8172376787946398 0.8769159816163518 0.10586603954357043 47 40 45 0.66 91 0 93 0 94 0 95 0 
55 0.5409190366683725 0.6816539127777567 0.14300523069587423 116 131 154 0.34 91 0 93 0 94 0 
56 0.11420881869432353 -0.5090481604063762 0.39669368183603226 108 126 139 0.66 91 0 93 0 94 0 
57 0.02592633622695706 0.4218663155154624 0.1903024903103907 112 133 156 0.54 91 0 93 0 94 0 95 0 
58 -0.3710862229211713 0.2575420072287372 0.21979699065825042 119 122 130 0.25 91 0 93 0 94 0 
59 -0.18248155450240233 -0.13695275202616009 0.302818155231936 123 111 105 0.38 91 0 93 0 94 0 95 0 
60 0.14069318536038744 -0.5641403300829383 0.39277929151190394 141 152 162 0.25 91 0 93 0 94 0 
61 -0.2399189600786933 0.32957140329438384 0.1991848754697838 128 137 144 0.82 91 0 93 0 94 0 
62 -0.053705511103760095 -0.3379725611327872 0.34139229068479815 164 157 151 0.39 91 0 93 0 95 0 
63 8.152115577921172 3.76653627056494 -0.49591162488142926 135 166 164 1.63 91 0 93 0 94 0 95 0 
64 -0.3262209855633733 0.2826864232767474 0.20316186905317535 67 73 97 0.27 91 0 93 0 94 0 95 0 
65 -0.412860754688543 0.2000033277444847 0.2136874612263131 134 126 124 0.54 91 0 93 0 94 0 
66 -0.27742539210909456 0.30724768995046714 0.18640845748902057 76 76 89 0.25 91 0 93 0 94 0 
67 1.0133107006751998 0.980492366502164 0.03133731140189466 59 72 88 0.76 91 0 93 0 94 0 95 0 
68 -0.43420916363979867 0.22499529913317018 0.19820818666412676 132 134 136 0.6 91 0 93 0 94 0 95 0 
69 1.0255690301747682 0.9402640595530246 0.021796926691963092 51 46 41 0.4 91 0 93 0 94 0 
70 0.5213602437765927 0.7122104515218749 0.07411074995962141 86 90 98 0.43 91 0 93 0 94 0 
71 -0.05308277549970919 0.3745880886937897 0.14493078675289794 137 159 181 0.61 91 0 93 0 94 0 95 0 
72 0.5535268712137407 0.738315020988144 0.05158163342738975 105 70 64 0.64 91 0 93 0 94 0 
73 1.4253439655340543 1.191213581036687 -0.06539261798083595 87 81 82 0.27 91 0 93 0 94 0 
74 0.0032014781420430793 0.40212736494047985 0.1252906628606334 121 149 178 0.24 91 0 93 0 94 0 95 0 
75 -0.3635963798065145 0.09411231617272542 0.19598709282894688 94 91 92 0.54 91 0 93 0 94 0 95 0 
76 1.6178767740461741 1.2946066297852696 -0.10366497220719717 49 41 38 0.3 91 0 93 0 94 0 
77 1.2734016884669483 1.1293174334468592 -0.08213057496033316 53 47 52 1.08 91 0 93 0 94 0 95 0 
78 -0.2726276202987856 0.31063764875411204 0.12806183921450587 119 123 128 1.25 91 0 93 0 94 0 
79 -0.45601057799493594 0.2228710961376924 0.1472923421118162 140 143 145 0.56 91 0 93 0 94 0 
80 1.7350809757372239 1.3797817775095305 -0.16897418256105845 38 39 42 1.43 91 0 93 0 94 0 95 0 
81 0.5471409741074722 0.7396391062721323 0.004188155656094539 53 62 79 0.12 91 0 93 0 94 0 
82 0.40418830940886075 0.6396136996093919 0.02901298388787077 147 168 189 0.87 91 0 93 0 95 0 
83 -0.44145938074543967 0.19928343974405338 0.14506569751287723 132 126 123 0.59 91 0 93 0 95 0 
84 -0.16179364422759113 0.34767796999956524 0.1017442611005066 111 119 135 2.15 91 0 93 0 94 0 95 0 
85 -0.25869985938434104 0.32357336520084323 0.109246877480905 73 78 97 0.74 91 0 93 0 94 0 
86 0.48886950754238945 0.6721819835063841 0.0009710681543837474 101 123 147 0.53 91 0 93 0 94 0 95 0 
87 1.4724672044532205 1.2318276981058855 -0.15692831795090023 43 54 65 0.87 91 0 93 0 94 0 95 0 
88 0.08718512501100717 -0.579777674005714 0.2531106772247709 99 113 131 0.38 91 0 93 0 94 0 95 0 
89 1.7229271542261864 1.3734340293127234 -0.2089842735103169 107 100 101 1.05 91 0 93 0 95 0 
90 1.5146971725079135 1.1984562779549428 -0.1698225786046781 53 52 50 0.51 91 0 93 0 94 0 
91 -0.027442148196008098 0.3945538000682579 0.06060028948101226 113 128 153 0.21 91 0 93 0 94 0 
92 0.963711892902368 -2.056484890477571 0.47514173571251805 146 140 138 1.14 91 0 93 0 94 0 95 0 
93 0.6366042105252907 -1.539302891972031 0.38619702168536785 64 99 103 0.7 91 0 93 0 95 0 
94 0.9431316371370739 -2.1078782341321403 0.46906047002583073 222 245 251 0.6 91 0 93 0 94 0 
95 -0.25220626429367465 0.3353571583893129 0.07911056409574413 67 65 64 0.34 91 0 93 0 94 0 95 0 
96 -0.4154921483370826 0.13677866131423067 0.1250309720686147 123 119 114 0.79 91 0 93 0 94 0 95 0 
97 -0.35627018466929083 0.044086135296509066 0.13783206495716116 105 94 95 0.22 91 0 93 0 95 0 
98 1.0217566659141804 -2.2785718708561946 0.492990025572406 72 60 59 1.36 91 0 93 0 94 0 95 0 
99 -0.309798652562157 0.28062772381252876 0.08004519594742998 94 99 108 1.13 91 0 93 0 95 0 
100 -0.4262568464428309 0.14451731084732222 0.11261655897513867 142 139 134 1.11 91 0 93 0 94 0 95 0 
101 0.17771290318116195 -0.8067039290272578 0.252212565317816 191 181 171 0.31 91 0 93 0 94 0 
102 1.1019685373359622 1.0331630908536495 -0.1555660339202951 92 108 127 0.25 91 0 93 0 94 0 
103 2.2157896968158 1.6136854563806011 -0.3453723838089957 24 23 24 0.61 91 0 93 0 94 0 
104 1.7366245805162972 1.381105927692047 -0.273608055834367 65 50 46 1.25 91 0 93 0 94 0 95 0 
105 0.40394616859603616 0.6242722709608856 -0.04392168367915783 148 175 200 0.13 91 0 93 0 94 0 
106 -0.45311470910016993 0.18047859665892474 0.0996591712354189 127 122 120 0.5 91 0 93 0 94 0 95 0 
107 -0.03131909900446761 0.4582608498011448 0.016717650231801384 119 132 145 0.84 91 0 93 0 94 0 
108 -0.42353863324348806 0.24807795221061324 0.08098933183637125 60 59 72 0.45 91 0 93 0 94 0 
109 0.027278926196662834 -0.5108066631896856 0.18889468613754268 161 180 194 0.6 91 0 93 0 94 0 95 0 
110 0.47462377181058946 0.6512792190763353 -0.06456108475065236 130 161 188 0.52 91 0 93 0 94 0 
111 0.037687332773179705 -0.561025324837321 0.18421277310084005 129 147 161 0.66 91 0 93 0 94 0 95 0 
112 1.0299173197697822 -2.216597304203633 0.4041384132368093 129 126 119 0.35 91 0 93 0 94 0 
113 0.031897088297943466 -0.6102339487289702 0.18984955425082206 46 53 55 0.6 91 0 93 0 94 0 95 0 
114 1.9413199248233295 1.485552654322547 -0.34327531529553523 61 81 98 1.3 91 0 93 0 94 0 95 0 
115 -0.044384449731261544 0.4518352013643375 -0.006772160180867903 46 46 49 0.4 91 0 93 0 94 0 95 0 
116 -0.4342505784024384 0.12514731344491425 0.08054897740713107 113 110 109 1.08 91 0 93 0 94 0 95 0 
117 0.9396231692826487 0.9237660040376471 -0.18697450480477662 102 113 130 0.81 91 0 93 0 94 0 95 0 
118 -0.3744777444471956 0.04454946063545406 0.08711075489039444 121 106 92 0.17 91 0 93 0 95 0 
119 0.0449007436036446 0.49384730887276784 -0.03247661169594651 82 87 101 0.31 91 0 93 0 94 0 
120 -0.4354715907044766 0.15099148907980398 0.07083949607550055 142 137 130 0.24 91 0 93 0 94 0 
121 -0.12504773041325645 0.40908386992858714 -0.005447900054265098 95 102 111 0.1 91 0 93 0 94 0 
122 -0.17926302585963194 0.37737274011553745 0.0027109248185457346 92 94 99 0.32 91 0 93 0 94 0 
123 0.0620667427669126 -0.6887721437924464 0.16881119320134919 130 127 126 0.54 91 0 93 0 94 0 95 0 
124 2.319777997091749 1.6519693506607473 -0.47721128794806567 79 85 91 0.33 91 0 93 0 94 0 
125 2.4474579853603453 1.74732207463921 -0.5448584903420604 61 79 88 0.38 91 0 93 0 94 0 
126 -0.4962100569945793 0.21234655353482934 0.03142253869892908 91 91 96 0.57 91 0 93 0 95 0 
127 -0.12204508413304715 -0.4121257831074475 0.09344556427204753 52 47 43 0.51 91 0 93 0 94 0 95 0 
128 0.9571590696735621 0.9030896430209262 -0.2563714349152719 108 139 169 0.37 91 0 93 0 94 0 
129 -0.3987728712559573 0.26245300463420296 0.00692296910956558 60 67 79 0.88 91 0 93 0 94 0 95 0 
130 0.4254094051782715 0.6957732088432861 -0.16567382560229205 63 79 99 0.46 91 0 93 0 94 0 
131 3.186106632113681 2.133437253910594 -0.7322103841011863 52 77 82 1.47 91 0 93 0 94 0 95 0 
132 0.0012014064376328903 -0.6196422243762495 0.09870718374845322 97 90 86 0.58 91 0 93 0 95 0 
133 -0.13684462929140606 0.4049975403550098 -0.05774556307819223 85 87 98 0.26 91 0 93 0 94 0 95 0 
134 0.046740289971500815 -0.7044984711212484 0.10509839541811239 149 137 133 0.33 91 0 93 0 94 0 95 0 
135 1.416838516237178 1.1801789016708537 -0.3793003350879056 98 101 114 0.41 91 0 93 0 94 0 
136 2.739717211895731 1.9053983962401286 -0.6696164410903218 41 39 41 0.46 91 0 93 0 94 0 
137 -0.003180632651792692 -0.6344965582999683 0.07293443674961075 76 72 65 0.45 91 0 93 0 94 0 95 0 
138 0.41269391355875373 0.6994879669959934 -0.19853258846650057 48 54 57 0.64 91 0 93 0 94 0 95 0 
139 -0.4581825275277862 0.13607814938419216 0.0032729787685823464 131 125 117 0.25 91 0 93 0 94 0 
140 1.1075730801296053 1.0612386946229426 -0.35980471695859717 91 100 118 0.26 91 0 93 0 94 0 
141 -0.28947127655525406 -0.16795006312679595 0.023275052824729414 101 99 95 1.04 91 0 93 0 94 0 95 0 
142 -0.18968328004629642 0.38086197724648707 -0.08580581900191997 95 100 114 0.31 91 0 93 0 95 0 
143 -0.17114620674552983 -0.36979290342027926 0.030537077526508583 148 136 123 0.34 91 0 93 0 95 0 
144 -0.009877812885425996 -0.6396763150403318 0.04248366695743533 147 141 136 0.35 91 0 93 0 94 0 
145 -0.45166818330463476 0.23893718485385107 -0.03416075289849796 66 73 82 0.3 91 0 93 0 94 0 
146 -0.4897239966875375 0.1557612988787359 -0.02023608354248685 136 131 124 0.63 91 0 93 0 94 0 
147 -0.06342037262968203 0.44651367536056863 -0.12891803990290662 73 78 91 0.36 91 0 93 0 94 0 
148 -0.3711181660500542 0.2936389508128502 -0.06003937774836743 104 109 117 0.49 91 0 93 0 94 0 
149 -0.12745576651120505 -0.44985743294943525 0.019641245116296613 123 110 105 0.65 91 0 93 0 94 0 95 0 
150 -0.5193340196687002 0.20893756453477208 -0.027098494938710305 99 100 101 0.57 91 0 93 0 94 0 95 0 
151 -0.32450687206337037 -0.13005658976374546 -0.004644470164899994 131 127 125 0.24 91 0 93 0 94 0 95 0 
152 0.6605481693507449 0.8372761261030056 -0.3042097268961892 52 45 41 0.84 91 0 93 0 94 0 95 0 
153 -0.11147608856549018 -0.4857651427364572 0.014410183027865342 154 146 142 0.47 91 0 93 0 95 0 
154 -0.15618944756766684 0.40637233895900093 -0.12420718625815996 77 77 88 0.5 91 0 93 0 94 0 
155 1.5583814754728096 1.2974939080345185 -0.5294679320783129 89 103 114 0.56 91 0 93 0 94 0 
156 -0.42124155084122084 0.04436025971495716 -0.03308229136573382 126 119 112 0.82 91 0 93 0 94 0 95 0 
157 -0.03007254590400832 -0.6325458432345713 0.008108229611895945 166 153 147 0.5 91 0 93 0 95 0 
158 -0.35697069727149433 0.3001714294830121 -0.08421350321652299 66 75 90 0.42 91 0 93 0 94 0 
159 -0.44960816185212327 0.07556582199621775 -0.04146463360380803 115 111 106 1.36 91 0 93 0 94 0 95 0 
160 -0.37169360901177395 -0.06286052532111219 -0.03395454083960736 102 99 103 0.54 91 0 93 0 94 0 
161 0.88507409063731 0.9517702243986131 -0.3923996674275094 46 56 65 0.48 91 0 93 0 94 0 
162 -0.4422134293859168 0.2534509115990794 -0.07602930357337323 99 102 111 0.3 91 0 93 0 94 0 95 0 
163 -0.3477821365607374 0.30502793419408136 -0.10027471831458934 123 129 134 0.49 91 0 93 0 95 0 
164 -0.5293230904588824 0.2054658876692893 -0.05510465581886903 103 106 107 0.53 91 0 93 0 95 0 
165 -0.20113674096894663 0.38590819697162704 -0.1431514999727279 88 86 93 0.47 91 0 93 0 94 0 
166 -0.4131408413961286 0.27033968403986197 -0.09231775015646848 109 112 120 0.24 91 0 93 0 95 0 
167 -0.41345973249909695 -0.002986619183428574 -0.050752808966354035 122 115 110 2.66 91 0 93 0 94 0 95 0 
168 -0.49393870072585466 0.14322766076007587 -0.06440960937590168 109 99 94 0.39 91 0 93 0 94 0 95 0 
169 -0.44264473466689447 0.04892281305010504 -0.058641372829451255 136 127 117 1.38 91 0 93 0 95 0 
170 -0.2882238115025437 -0.22713479337974707 -0.04717620075544615 139 129 120 1.27 91 0 93 0 94 0 95 0 
171 0.18730129245428495 -1.02835127817647 -0.01508581477843518 138 118 121 0.3 91 0 93 0 94 0 
172 0.46133383739665357 0.7438181308120585 -0.32708057159537174 32 33 35 0.09 91 0 93 0 95 0 
173 0.20785594853478928 0.6047415491734672 -0.2734143046585842 112 111 116 0.41 91 0 93 0 94 0 95 0 
174 -0.31761825644257247 0.3229542294949741 -0.1350688581382271 43 41 50 0.39 91 0 93 0 94 0 95 0 
175 0.1590603104776407 0.5743048062595894 -0.26520799914602855 104 96 98 0.4 91 0 93 0 94 0 95 0 
176 1.3281617086668032 1.2037683931913326 -0.5779424142098063 44 53 57 0.9 91 0 93 0 94 0 95 0 
177 -0.5041407391934767 0.1344068206833552 -0.08926954705639911 105 100 96 0.96 91 0 93 0 94 0 
178 0.3086243063025882 0.6607512625610376 -0.3174942392990978 74 77 90 1.15 91 0 93 0 94 0 95 0 
179 -0.546275921897637 0.20174346429882772 -0.09549354345010541 135 136 137 0.76 91 0 93 0 94 0 95 0 
180 -0.12471666807822901 0.424220933840333 -0.21027402454790445 71 83 101 0.4 91 0 93 0 94 0 95 0 
181 -0.5114586052191923 0.22927344583756804 -0.108961443040964 99 105 113 2.44 91 0 93 0 94 0 
182 -0.4582484113298495 0.25041480943503036 -0.13094913554331344 101 103 111 1.42 91 0 93 0 94 0 
183 -0.12010248338161089 0.3723303609010683 -0.2205693846048118 30 30 30 0.23 91 0 93 0 94 0 95 0 
184 -0.4173543718338575 0.2700412345330041 -0.1452953086766373 106 109 113 0.17 91 0 93 0 94 0 
185 -0.5302490056147704 0.2216255147771432 -0.11891605496814006 68 74 87 0.6 91 0 93 0 94 0 
186 -0.5403881445734795 0.17768145775041122 -0.1108550636427974 124 123 122 0.95 91 0 93 0 94 0 95 0 
187 0.1292073382648362 0.5737771048828811 -0.3196600355187247 58 51 53 0.89 91 0 93 0 94 0 95 0 
188 -0.3893852691046962 0.28252885527392146 -0.1751186925986612 67 67 80 0.51 91 0 93 0 95 0 
189 -0.7358277290584088 0.0924902615773423 -0.07758899781552508 80 87 78 0.29 91 0 93 0 94 0 
190 -0.3472265212681238 0.29927061190564685 -0.193345201759606 75 79 88 1.64 91 0 93 0 94 0 95 0 
191 -0.5193978988410506 0.21236614881722604 -0.14863037921480582 72 80 93 0.39 91 0 93 0 94 0 95 0 
192 -0.407876638426516 0.27810718667710355 -0.19487335280383156 103 106 110 0.15 91 0 93 0 94 0 
193 -0.19897741135812996 0.3351006452570149 -0.26562971173832195 100 122 148 0.44 91 0 93 0 94 0 
194 -0.5283606934069534 0.22050985908428944 -0.17578170919820324 95 104 117 0.24 91 0 93 0 94 0 
195 -0.1509550220951783 0.36726664749066595 -0.2862462611717007 98 112 130 0.69 91 0 93 0 94 0 95 0 
196 -0.5741888319774087 0.19622282748908704 -0.17463786605210196 99 102 105 0.3 91 0 93 0 94 0 
197 -0.1629778174325418 0.36447183634370617 -0.3338664503332096 84 104 123 0.43 91 0 93 0 94 0 
198 -0.4162587436366536 0.29126013197932166 -0.28733639620750395 90 94 98 1.33 91 0 93 0 94 0 
199 -0.597206253608479 0.25580940726571155 -0.23437656736561108 105 120 128 0.37 91 0 93 0 94 0 
200 -0.5898134420423666 0.2704397254459957 -0.25139224562806883 49 63 59 0.27 91 0 93 0 94 0 
201 -0.5995252502598727 0.8062994805551537 -0.3464806300972485 40 63 60 0.07 91 0 93 0 94 0 
202 -0.42010964436110054 0.32672438590507513 -0.4183973097139757 35 44 52 0.51 91 0 93 0 94 0 
203 -0.4253291713008789 0.29713412597217237 -0.41338552450000754 41 50 57 0.59 91 0 93 0 94 0 95 0 
204 -0.6534807031176957 0.6198963768086839 -0.37054557599814664 12 18 20 3.79 91 0 93 0 95 0 
205 -0.6732147636045958 0.739384049808315 -0.39405425343713585 39 47 45 0.28 91 0 93 0 95 0 
206 -0.5837627608442553 0.5167042624383548 -0.4235407543873133 26 47 46 1.06 91 0 93 0 94 0 95 0 
207 -0.6741469480515887 0.7761591487826726 -0.44720969560365176 47 58 51 0.38 91 0 93 0 94 0 95 0 
208 -0.8216867615764043 -0.6051343904057064 -0.4554497286787129 12 14 13 2.88 91 0 93 0 94 0 
209 -0.7612729327404164 0.879945420234053 -0.5491165132341141 35 38 33 0.34 91 0 93 0 94 0 
210 -0.9299105150885083 0.554417258307698 -0.4558087795764264 67 59 37 0.88 91 0 93 0 94 0 95 0 
211 -1.0456272715826804 0.28533407759534934 -0.4612799130885066 18 30 23 1.08 91 0 93 0 94 0 95 0 
212 -0.21666420548579302 0.09112202733548525 0.5410448541089956 153 145 135 0.19 93 0 94 0 95 0 
213 -0.02221015997780107 -0.22419463258628702 0.5951412601457022 93 88 85 0.88 93 0 94 0 95 0 
214 -0.3256233917556317 0.2298839547454291 0.4561172589882947 153 141 137 0.13 93 0 94 0 95 0 
215 -0.11341391091353348 -0.07624343022148394 0.5405291611545358 148 136 126 0.3 93 0 94 0 95 0 
216 -0.2937062761638636 0.1958814731237014 0.453258629047641 143 141 132 0.37 93 0 94 0 95 0 
217 0.10218559283877693 0.47840711652698 0.4102626382953012 56 63 71 0.18 93 0 94 0 95 0 
218 -0.32556088726428545 0.1939787813051418 0.42324727178081023 125 122 117 0.5 93 0 94 0 95 0 
219 -0.22404320141800316 0.043482398963630486 0.44993649060395957 169 163 151 0.35 93 0 94 0 95 0 
220 -0.2684611674424211 0.12069918689497905 0.4281783695899919 138 144 144 0.94 93 0 94 0 95 0 
221 0.10564842721578582 0.4376458054267459 0.3980764041691438 59 59 57 0.21 93 0 94 0 95 0 
222 -0.23967514417826496 0.04454500905756775 0.4222485906213942 139 126 117 0.63 93 0 94 0 95 0 
223 -0.13304310944752196 -0.14305404943964828 0.45300263043098865 78 87 101 0.34 93 0 94 0 95 0 
224 -0.1580440035106192 -0.09080874143261031 0.4381738784141851 150 140 124 0.19 93 0 94 0 95 0 
225 -0.2786282898427599 0.06905409864002243 0.39682677400958766 160 161 153 0.59 93 0 94 0 95 0 
226 0.6610878531616815 0.8863250010285467 0.3086860914385856 44 50 59 0.87 93 0 94 0 95 0 
227 -0.2798058308778608 0.09190873111824616 0.3827103447561391 147 141 134 0.45 93 0 94 0 95 0 
228 -0.29751413561846096 0.11766409554252577 0.3747769862295369 126 124 121 0.17 93 0 94 0 95 0 
229 -0.2551456853914855 0.03392462054397616 0.39067857565345054 133 122 112 0.52 93 0 94 0 95 0 
230 -0.3538085652653704 0.19756961857330857 0.338316511974345 147 146 140 0.34 93 0 94 0 95 0 
231 -0.3245881490272975 0.12354876918533664 0.3287979047102503 144 134 125 0.28 93 0 94 0 95 0 
232 -0.23351490729887248 -0.02094485457719697 0.3586225167732686 152 149 145 0.81 93 0 94 0 95 0 
233 -0.3515115902930086 0.1273871311796445 0.315397788750196 142 137 131 0.52 93 0 94 0 95 0 
234 -0.34766644473869457 0.17738381009582194 0.3039934982733281 167 163 152 0.7 93 0 94 0 95 0 
235 -0.3465700921984647 0.16454480578040098 0.3049275485081522 126 117 108 0.29 93 0 94 0 95 0 
236 -0.2552614115778402 0.004008169001524009 0.3305926075711063 129 119 110 0.28 93 0 94 0 95 0 
237 -0.2507552058424318 -0.028696451910189213 0.32494707695354474 118 112 109 0.48 93 0 94 0 95 0 
238 0.0922292517575185 -0.45235223911974576 0.403958066181598 142 164 187 0.36 93 0 94 0 95 0 
239 11.344999953957082 4.959823954962292 -0.28524818666002827 140 161 196 1.21 93 0 94 0 95 0 
240 -0.34299525351224824 0.12473340023075685 0.2846415861599294 138 130 121 0.85 93 0 94 0 95 0 
241 2.8301453278854973 2.4074272618355077 -0.036615428042709786 180 197 200 1.38 93 0 94 0 95 0 
242 -0.4094623985685 0.21439960575731953 0.2666931194420581 125 117 114 1.03 93 0 94 0 95 0 
243 -0.3696201569209765 0.17351190582354448 0.27396397714722864 139 135 125 0.31 93 0 94 0 95 0 
244 -0.23882776174857678 -0.04498021970745836 0.3084631199152905 160 160 158 0.16 93 0 94 0 95 0 
245 0.04467773584659662 0.46154185827973315 0.22058613255080473 107 113 117 0.45 93 0 94 0 95 0 
246 -0.37360760374831337 0.1706444420950245 0.2608976157282201 130 124 119 0.36 93 0 94 0 95 0 
247 11.147004264905117 4.899578171716385 -0.39996141953612774 140 169 182 1.13 93 0 94 0 95 0 
248 -0.16791153708323892 -0.16554425283061114 0.3138194457335104 144 133 124 1.18 93 0 94 0 95 0 
249 -0.3345250138133462 0.10911907370681762 0.2551829127212859 159 155 149 0.43 93 0 94 0 95 0 
250 -0.30389289245194195 0.00845320089492485 0.27148553602836945 149 147 144 0.32 93 0 94 0 95 0 
251 -0.3768294540851098 0.14917963872974827 0.24549483793904092 152 147 137 0.18 93 0 94 0 95 0 
252 -0.020627161615816014 -0.3973177701959206 0.3373430731425038 146 141 136 0.41 93 0 94 0 95 0 
253 -1.3321489191350873 -0.24729341777248737 0.31377218184947187 17 25 25 0.95 93 0 94 0 95 0 
254 -0.36468484804847234 0.1466553865231287 0.23056526803812516 132 128 123 0.21 93 0 94 0 95 0 
255 -0.3567317495089153 0.09455109700817987 0.22578245843888145 102 97 91 1.98 93 0 94 0 95 0 
256 8.232973990592818 4.437867795316695 -0.6411439163831171 189 204 208 1.72 93 0 94 0 95 0 
257 -0.12751221273375002 -0.3048809579097923 0.2685772838268152 149 143 135 0.52 93 0 94 0 95 0 
258 -0.40557824221472094 0.17344888587779816 0.19427375434221128 133 128 122 0.31 93 0 94 0 95 0 
259 -0.19467082379685952 -0.15847880852071927 0.24127534655095473 132 131 126 0.52 93 0 94 0 95 0 
260 -0.3817856545610403 0.13118101542095395 0.1971278874239919 128 124 121 0.33 93 0 94 0 95 0 
261 7.076913129725278 3.589140379334332 -0.6260840888960049 63 93 98 2.22 93 0 94 0 95 0 
262 0.054214389330799584 -0.509540346943497 0.26009202190378056 167 199 220 0.24 93 0 94 0 95 0 
263 -0.08472858934584337 -0.37450304525690814 0.23527673880772593 140 126 117 0.51 93 0 94 0 95 0 
264 -0.3158682474605037 0.011831077224202402 0.18303617671385375 101 98 101 0.22 93 0 94 0 95 0 
265 7.050034512429919 3.753468658713365 -0.7141239571826677 124 180 190 0.91 93 0 94 0 95 0 
266 0.8878529193811677 -2.014494502949072 0.4384997349190667 109 89 89 0.71 93 0 94 0 95 0 
267 -0.40501384784995764 0.10486914650368162 0.16093784273029943 129 125 120 1.02 93 0 94 0 95 0 
268 0.04761599345441336 -0.5098910056333062 0.2283750286212165 121 138 146 0.68 93 0 94 0 95 0 
269 6.755065394695225 3.693066728879139 -0.8187566298803437 90 135 121 1.15 93 0 94 0 95 0 
270 0.8594019072636154 -1.9889709590270725 0.37344653554315865 197 184 181 0.84 93 0 94 0 95 0 
271 0.003215748121795148 -0.4584240585098397 0.19374448986950044 111 127 145 0.57 93 0 94 0 95 0 
272 -0.0061226367288051975 -0.45548912805680153 0.16471488648245303 103 128 138 1.39 93 0 94 0 95 0 
273 0.015196542741566343 -0.5138305796859665 0.15884879014829223 151 166 176 0.34 93 0 94 0 95 0 
274 -0.39689141264769523 0.08013641687132533 0.10598132217627465 135 129 122 0.61 93 0 94 0 95 0 
275 -0.4163341465904131 0.12448648888221892 0.09629874037161024 122 119 114 1.26 93 0 94 0 95 0 
276 -0.3592202455608273 0.04219343368349804 0.10052095378407078 128 123 113 0.64 93 0 94 0 95 0 
277 6.521568228358561 3.69461302410487 -1.0892090897455375 76 83 86 1.05 93 0 94 0 95 0 
278 -0.31252296344174946 0.3019388161052198 0.033153119567686185 67 72 90 0.12 93 0 94 0 95 0 
279 0.029127394363903658 -0.5936127784805983 0.10783380798435149 123 113 129 0.44 93 0 94 0 95 0 
280 0.4223411835273303 -1.3510019731585636 0.16717190374780455 135 143 161 0.53 93 0 94 0 95 0 
281 -0.373035659675792 -0.0030999385011670766 0.05438534505448733 130 127 121 1.39 93 0 94 0 95 0 
282 -0.07319204610453145 -0.4982831786831693 0.08562623036371497 60 57 54 1.48 93 0 94 0 95 0 
283 0.5384058321213783 -1.508690024784729 0.15497856941259247 140 159 183 0.51 93 0 94 0 95 0 
284 -0.39771307912864495 0.05241460441301349 0.04800034026259348 117 115 111 0.36 93 0 94 0 95 0 
285 0.10207405221417587 -0.8338643906321148 0.10024395326736779 151 145 142 0.68 93 0 94 0 95 0 
286 2.2634727522180214 -3.5248165103623545 0.17301319323688102 52 61 68 1.5 93 0 94 0 95 0 
287 0.49513460246155017 -1.4418737954570995 0.09305094810036074 237 247 250 0.69 93 0 94 0 95 0 
288 0.5257678857858112 -1.5031108844182497 0.08784873753452271 188 205 222 0.12 93 0 94 0 95 0 
289 -0.23571832623657318 -0.25302209414743315 0.024025455675928287 139 136 133 0.34 93 0 94 0 95 0 
290 -0.3327581209867718 -0.08197305216444628 0.013266366317938871 104 104 108 0.18 93 0 94 0 95 0 
291 -1.3985978743324097 -0.41578674877865873 0.20150651092970162 20 22 21 1.06 93 0 94 0 95 0 
292 -0.15654991915659133 -0.4045185340335181 0.020607743240241172 137 125 121 0.24 93 0 94 0 95 0 
293 -0.4524919966074936 0.11230516033078641 -0.01394326719171457 132 132 127 0.9 93 0 94 0 95 0 
294 -0.19189625302631352 -0.3657963289644012 0.0045925015913772516 129 122 114 1.25 93 0 94 0 95 0 
295 0.5833075672509822 -1.7360345840585056 0.05945566347460507 172 177 177 0.45 93 0 94 0 95 0 
296 -0.42239171080841675 0.056233829388426027 -0.01684903091363954 130 132 130 0.68 93 0 94 0 95 0 
297 -0.48733315697022395 0.15482185493022727 -0.03302024397209502 108 106 101 0.37 93 0 94 0 95 0 
298 0.8518869194938103 0.9407191922662407 -0.3430045039577372 56 72 93 0.51 93 0 94 0 95 0 
299 0.5090731370212564 -1.5358661083377552 0.010525082428910038 152 151 173 0.68 93 0 94 0 95 0 
300 0.11568007509350409 -0.9500424837440843 -0.004505148437475182 149 150 153 0.55 93 0 94 0 95 0 
301 -0.04795902681513331 -0.635541065382028 -0.02602054588724334 142 135 135 0.42 93 0 94 0 95 0 
302 0.17218517715764325 -1.071070711295385 -0.016390771919968294 170 161 155 0.77 93 0 94 0 95 0 
303 -0.4775087295907383 0.23054650436725177 -0.061552343857902425 101 104 114 0.59 93 0 94 0 95 0 
304 -0.4687549192533109 0.09597097060587279 -0.052190775694765046 120 118 113 0.68 93 0 94 0 95 0 
305 -0.4040004919422375 -0.022430871475670355 -0.050292342161497805 124 122 114 1.15 93 0 94 0 95 0 
306 -0.5099671353975039 0.18703847732286427 -0.05845054366017499 90 92 98 0.15 93 0 94 0 95 0 
307 0.4660577523731746 -1.569253342876471 -0.022828492105722464 83 84 96 0.52 93 0 94 0 95 0 
308 0.3303752043877599 0.6594143969281049 -0.26355822834055864 68 69 87 0.53 93 0 94 0 95 0 
309 -0.150178871812928 0.41257672764340414 -0.15830732139223813 71 59 69 0.35 93 0 94 0 95 0 
310 -0.40817247339714147 -0.06685817668181537 -0.05931587649665748 132 131 122 1.12 93 0 94 0 95 0 
311 1.0883447227669916 1.0823324158450869 -0.4835506081611678 55 50 52 0.66 93 0 94 0 95 0 
312 -0.5376542115606302 0.20574160650345197 -0.07860597212270304 98 102 107 0.7 93 0 94 0 95 0 
313 -0.5173142556748194 0.18361139294869389 -0.08649560178355475 97 90 89 0.36 93 0 94 0 95 0 
314 -0.2527995536770087 0.35881711653278237 -0.1609191034982702 102 113 125 0.18 93 0 94 0 95 0 
315 0.06351991970108184 -1.0013867811678825 -0.09792258326385506 183 183 186 0.86 93 0 94 0 95 0 
316 0.08540103305209579 -1.053445126675412 -0.10099133049110609 207 204 200 1.06 93 0 94 0 95 0 
317 0.25328945652737467 -1.2279279174492443 -0.11743923942042978 137 122 126 0.84 93 0 94 0 95 0 
318 -0.7654271246464286 0.0071750167992946645 -0.04288453458727148 59 72 62 0.36 93 0 94 0 95 0 
319 -0.5203610697897627 0.17175792186295802 -0.14380106808912596 107 107 107 1.73 93 0 94 0 95 0 
320 0.059252955994745005 -1.0151213680609248 -0.15705345608542887 203 217 220 0.55 93 0 94 0 95 0 
321 -0.16846402758388068 -0.5290916370444844 -0.15687487377447806 173 161 149 0.24 93 0 94 0 95 0 
322 0.08855971159630349 -0.9924495314964302 -0.16885895365254888 80 81 85 0.36 93 0 94 0 95 0 
323 0.08203010306238201 -1.0649433838510864 -0.1648149222465356 206 202 197 0.72 93 0 94 0 95 0 
324 -0.14072488876631262 -0.5840459530018564 -0.16449389318498175 157 145 131 0.17 93 0 94 0 95 0 
325 -0.09080738158938484 -0.6834581640345402 -0.17375466290027575 153 143 133 0.41 93 0 94 0 95 0 
326 -0.21424762898615057 -0.4434009932581263 -0.17209494734307795 100 97 102 0.57 93 0 94 0 95 0 
327 -0.01248418624003822 -0.7758117803255443 -0.20687744837958788 167 155 145 2.36 93 0 94 0 95 0 
328 0.06428164770783251 -1.0094343270630501 -0.226088811367823 128 120 108 0.32 93 0 94 0 95 0 
329 -0.15230020956736423 -0.5892574206254343 -0.2167385715457375 60 58 56 1.89 93 0 94 0 95 0 
330 -0.15025557854088012 0.44512866421735586 -0.3267623529510355 62 65 67 0.32 93 0 94 0 95 0 
331 -0.5960454064315686 0.2459131738889696 -0.19716669851318103 71 81 83 0.32 93 0 94 0 95 0 
332 0.22591649715670403 -1.3618455025933478 -0.298018968808446 102 82 82 0.42 93 0 94 0 95 0 
333 -0.36722076273417326 0.3097253433128391 -0.28725455001947364 94 119 140 0.3 93 0 94 0 95 0 
334 0.3352729965463357 -1.5181760909356783 -0.4083190771977143 104 85 92 0.3 93 0 94 0 95 0 
335 0.2895922614862263 -1.5355489742646586 -0.39640877282525167 115 93 97 0.54 93 0 94 0 95 0 
336 0.11484939006629125 -1.233983822804956 -0.397488265572453 169 157 152 0.44 93 0 94 0 95 0 
337 0.17598257375295479 -1.3615505848899239 -0.41007298918434487 193 178 173 0.6 93 0 94 0 95 0 
338 0.32180999865492055 -1.5220652673290793 -0.44571931765166284 111 86 94 0.22 93 0 94 0 95 0 
339 0.3166362295057785 -1.5617125205952003 -0.44313739176158595 72 56 62 0.58 93 0 94 0 95 0 
340 0.11602766260808073 -1.244157002508323 -0.43762771000864475 206 199 192 1.19 93 0 94 0 95 0 
341 0.29236894814221537 -1.6098393607535453 -0.4745732228715519 84 100 103 0.74 93 0 94 0 95 0 
342 0.17523636572594903 -1.3775764942178061 -0.4621089205924961 186 172 171 0.44 93 0 94 0 95 0 
343 0.30541791382137395 -1.5240806776527096 -0.4968821368936849 80 60 67 0.73 93 0 94 0 95 0 
344 0.2799377556374514 -1.559154247444445 -0.48668141628485995 98 71 78 0.66 93 0 94 0 95 0 
345 0.08036844918733821 -1.2254555114924353 -0.4793259464741517 186 178 167 0.65 93 0 94 0 95 0 
346 0.25139260754196013 -1.5504620121931536 -0.5190024934763026 92 64 69 0.89 93 0 94 0 95 0 
347 -0.6889042648534334 0.7521124901167399 -0.35385128805751265 39 72 75 0.82 93 0 94 0 95 0 
348 0.10708495871513257 -1.2979674492276914 -0.5021413325882673 192 181 170 0.85 93 0 94 0 95 0 
349 0.17076790239308148 -1.3925081770488221 -0.5326164873541532 139 117 118 0.6 93 0 94 0 95 0 
350 0.26279838383804677 -1.5591746357351046 -0.5586372576055465 249 252 254 0.62 93 0 94 0 95 0 
351 0.1432185069954084 -1.3870072125139319 -0.5600347666577392 183 175 173 0.39 93 0 94 0 95 0 
352 0.22665704756147775 -1.4987201058826445 -0.5843735634012677 76 59 66 0.42 93 0 94 0 95 0 
353 0.24942212813819276 -1.6239978250917275 -0.6075700880877516 156 165 165 0.63 93 0 94 0 95 0 
354 -0.687756877476156 0.787918962265788 -0.4075298876801621 31 41 38 0.4 93 0 94 0 95 0 
355 -0.6160111488602937 0.8199499008396464 -0.4668446037865912 27 37 39 0.35 93 0 94 0 95 0 
356 -0.7489817017013003 0.820525703459554 -0.4261350627904388 27 39 32 3.71 93 0 94 0 95 0 
357 -0.40174341417263904 -1.4087115965720516 -0.49229039292380605 90 92 106 1.78 93 0 94 0 95 0 
358 -0.559147767721146 -1.2045592628783703 -0.5082176143297802 32 41 59 0.83 93 0 94 0 95 0 
359 -0.758932598921092 -0.6700202132363354 -0.48681745397652487 13 15 14 0.28 93 0 94 0 95 0 
360 -0.7650768484035648 -0.988323016232329 -0.506015654284269 29 44 53 0.34 93 0 94 0 95 0 
361 -0.373381957874829 -1.8268123669073422 -0.7030176786852852 105 108 108 0.66 93 0 94 0 95 0 
362 -0.8458470159626019 -0.6915512352605419 -0.4708615852656566 16 22 29 0.16 93 0 94 0 95 0 
363 -0.8660465145676532 -0.7001523589276452 -0.47291872813613245 46 54 67 0.15 93 0 94 0 95 0 
364 -1.3858635906285866 0.14884154621729329 -0.22105731242557392 27 25 28 1.12 93 0 94 0 95 0 
365 -0.7291878424825198 -1.084477308412212 -0.5844276872161437 52 59 58 0.93 93 0 94 0 95 0 
366 -0.9563416199949506 -0.7488697073161673 -0.4682074735380204 11 13 14 0.3 93 0 94 0 95 0 
367 -1.4010596472921115 0.12443711007635339 -0.22573415541384034 88 69 94 1.41 93 0 94 0 95 0 
368 -0.8381470408887628 -1.0581646901271675 -0.5428269028899306 112 104 106 0.32 93 0 94 0 95 0 
369 -0.8491922556382603 -1.0154335762356186 -0.5583417479411366 27 29 32 0.29 93 0 94 0 95 0 
370 -0.8901238519847801 -1.0527312380522371 -0.5451143040076956 33 34 36 0.22 93 0 94 0 95 0 
371 -1.4054375940960968 0.15467693687821715 -0.24353340583043082 73 61 73 0.92 93 0 94 0 95 0 
372 -1.4223847998723826 0.13858416862715373 -0.23606279128698193 128 80 109 0.97 93 0 94 0 95 0 
373 -0.9184179374912502 -1.0827194642583389 -0.549333092705944 97 98 120 1.51 93 0 94 0 95 0 
374 -0.9065886388046693 0.7295883295442217 -0.5620357475087938 16 19 17 0.34 93 0 94 0 95 0 
375 -0.9891854080920259 -0.9264728821456188 -0.5225440350033035 126 119 134 1.82 93 0 94 0 95 0 
376 -1.4255097640302252 0.1375666399269616 -0.24841426851612836 86 29 38 0.89 93 0 94 0 95 0 
377 -0.9736900524084717 -0.758987129607556 -0.535182788730711 62 61 64 0.38 93 0 94 0 95 0 
378 -0.9688385709825873 -0.7065592270026192 -0.5389407390822509 59 53 57 1.85 93 0 94 0 95 0 
379 -1.4318934084400867 0.17154564483633072 -0.2497785643585051 83 51 53 1.33 93 0 94 0 95 0 
380 -1.024371051690299 -0.7860464710048888 -0.513913094957967 65 66 71 0.3 93 0 94 0 95 0 
381 -0.964028950027707 0.6559079014652239 -0.5422023961849026 22 39 35 0.08 93 0 94 0 95 0 
382 -1.4050106080509637 0.08939329546620434 -0.2720024858306225 11 18 14 0.76 93 0 94 0 95 0 
383 -1.0862602766050964 -0.2558371599323058 -0.46942616262102765 31 49 27 0.39 93 0 94 0 95 0 
384 -1.026704576201519 -0.5681181210972063 -0.5145898517550004 87 78 80 0.72 93 0 94 0 95 0 
385 -1.0483435552684939 0.33124273353105227 -0.4912714603367714 26 45 36 0.39 93 0 94 0 95 0 
386 -1.4352493195104783 0.14785997717630173 -0.26110711290236077 91 65 87 0.51 93 0 94 0 95 0 
387 -0.9641212930340086 0.6401070755759143 -0.5596056172291182 89 80 47 0.53 93 0 94 0 95 0 
388 -1.4412980767440824 0.16184847641864197 -0.2634380987631695 86 45 50 1.15 93 0 94 0 95 0 
389 -1.1269074922827835 -0.44778193739064853 -0.4727555410303589 55 54 58 2.78 93 0 94 0 95 0 
390 -1.003749736326852 0.5490998682386187 -0.5399453931947898 29 54 41 0.6 93 0 94 0 95 0 
391 -1.4229570575845183 0.1216449315797058 -0.2807007685828813 30 24 23 1.25 93 0 94 0 95 0 
392 -1.4168735180718 0.09950143779674636 -0.28531242421588554 16 25 18 1.39 93 0 94 0 95 0 
393 -1.047893063941594 0.4428208099641108 -0.5227456415128844 9 17 13 0.29 93 0 94 0 95 0 
394 -1.1035252227209065 -0.2439570046458014 -0.4979438878181889 36 33 34 0.5 93 0 94 0 95 0 
395 -1.0760639391768474 -0.28333555282293077 -0.5178988884138545 48 40 41 3.21 93 0 94 0 95 0 
396 -1.1881971002650644 -0.2894070774403322 -0.4576818398010134 78 65 74 1.61 93 0 94 0 95 0 
