# 3D point list with one line of data per point:
#   POINT3D_ID, X, Y, Z, R, G, B, ERROR, TRACK[] as (IMAGE_ID, POINT2D_IDX)
# Number of points: 465, mean track length: 4.59
1297 -0.20758835156544686 -0.042414403408125245 -0.016591631929050443 135 131 131 0.44 63 0 64 0 65 0 66 0 
1298 0.301437802482197 0.0025981931073598696 0.003141659742232017 174 168 166 0.53 63 0 65 0 66 0 
1299 -0.6493406828268999 -0.08580461229256092 -0.03160719742971696 148 148 148 0.51 63 0 66 0 67 0 68 0 
1300 0.13415026176772704 -0.019912949812773972 -0.013060163432914162 142 125 118 1.05 63 0 65 0 66 0 
1301 -0.6296635631570227 -0.08531663209249513 -0.028335299470192865 73 65 70 0.63 63 0 64 0 65 0 66 0 67 0 
1302 -0.7294496958231418 -0.09744101254382953 -0.03647778981396921 112 112 119 0.41 63 0 64 0 65 0 66 0 
1303 -0.04361701400438944 -0.04887341014789309 -0.009103194100793743 160 150 144 0.36 63 0 64 0 66 0 
1304 -0.7852081257941248 -0.11442604436543197 -0.035074765871002 104 107 114 0.49 63 0 64 0 65 0 66 0 68 0 
1305 -0.18301755404123132 -0.06719503459532716 -0.026240242434437233 169 165 165 1.0 63 0 65 0 66 0 
1306 -0.7297282165164383 -0.11185661315438272 -0.03229955702546383 162 168 178 0.48 63 0 64 0 65 0 66 0 67 0 
1307 -0.7680375230950685 -0.11591858547996786 -0.03445809508387088 113 111 116 0.33 63 0 64 0 65 0 66 0 67 0 68 0 
1308 -0.7054363796590801 -0.11188447518835304 -0.03176208273355563 147 151 160 1.02 63 0 64 0 65 0 66 0 
1309 0.6806353486974217 0.005635622315616096 0.01816219819945397 175 172 173 0.47 63 0 64 0 66 0 
1310 0.2599491085211123 -0.032940647803681555 0.0006646609949017002 143 137 131 0.34 63 0 64 0 66 0 
1311 -0.6549737811001826 -0.1101394361516137 -0.03021659302331292 139 143 145 0.32 63 0 64 0 65 0 66 0 67 0 68 0 
1312 -0.6866987415219952 -0.11306356995262867 -0.02889489819699609 118 120 124 0.5 63 0 64 0 65 0 66 0 
1313 0.9170992060613372 0.022523947012665968 0.030792243928160268 137 128 132 0.25 63 0 64 0 65 0 66 0 68 0 
1314 -0.6300374134900038 -0.11000135477649758 -0.0280143213700903 136 135 134 0.5 63 0 64 0 65 0 66 0 67 0 68 0 
1315 -0.6099773963959418 -0.11146810486704328 -0.028725089522387393 146 144 140 0.44 63 0 64 0 65 0 66 0 67 0 68 0 
1316 -0.1906720742658139 -0.07855294792794609 -0.005159304299280798 119 114 113 1.05 63 0 64 0 65 0 66 0 
1317 -0.7354466172624012 -0.12809914863364635 -0.03339890863828021 73 76 91 0.64 63 0 64 0 65 0 66 0 68 0 
1318 1.1071409674828192 0.02374079850777261 0.04092304361253429 146 132 120 0.35 63 0 64 0 65 0 66 0 
1319 -0.6306449993461216 -0.12487437376448629 -0.03280221284797147 150 149 147 0.27 63 0 65 0 66 0 67 0 68 0 
1320 -0.6518564158163236 -0.12486241642070522 -0.029270335584512974 162 167 166 0.3 63 0 64 0 65 0 66 0 67 0 68 0 
1321 -0.7821300847632335 -0.1386422820560243 -0.03331962721019699 133 136 142 0.64 63 0 64 0 65 0 66 0 68 0 
1322 -0.6660694012576232 -0.1368008754738924 -0.0258682083782249 163 164 170 0.88 63 0 64 0 65 0 66 0 67 0 68 0 
1323 -0.6883174136812933 -0.13864952787695972 -0.028395116204542825 142 142 149 0.34 63 0 64 0 65 0 66 0 67 0 68 0 
1324 0.051968591253432894 -0.08889432697651567 -0.008969084824858253 67 62 66 0.73 63 0 64 0 65 0 66 0 67 0 68 0 
1325 0.9197969566907802 -0.019098243282767602 0.03694966633002417 155 146 135 0.76 63 0 64 0 65 0 66 0 67 0 68 0 
1326 -0.14151031007362125 -0.10818277475902988 -0.012799812655945875 161 159 156 0.76 63 0 64 0 66 0 
1327 -0.7837525310010915 -0.1598919120052395 -0.03716096864321572 91 87 88 0.3 63 0 64 0 65 0 66 0 67 0 
1328 -0.7473628776310552 -0.15728734944652334 -0.02951160582547052 102 87 93 0.45 63 0 64 0 65 0 66 0 67 0 68 0 
1329 -0.6525833058228547 -0.1530969332145447 -0.02827837416672785 126 123 119 0.52 63 0 64 0 65 0 66 0 67 0 68 0 
1330 -0.631656735039922 -0.1528618550153566 -0.02659893293174531 115 113 109 0.81 63 0 65 0 66 0 67 0 
1331 0.4094303228083138 -0.07759773533000647 0.01520537594686755 168 154 150 0.44 63 0 64 0 66 0 
1332 -0.13628411130613372 -0.1193188825617717 -0.011367684595007477 129 113 109 0.5 63 0 64 0 65 0 66 0 
1333 -0.06633791127864797 -0.11802581236848275 0.015487165825638582 47 34 38 0.59 63 0 64 0 65 0 66 0 
1334 0.3370992432265366 -0.09994785410499352 -0.013280879496201381 87 92 101 0.36 63 0 64 0 65 0 66 0 67 0 68 0 
1335 -0.6732406492970027 -0.18353249737488847 -0.029599413465083657 127 129 133 0.59 63 0 64 0 65 0 66 0 67 0 68 0 
1336 1.4831448774061446 -0.059292131506850865 0.06421782196111225 111 98 98 0.62 63 0 64 0 66 0 67 0 68 0 
1337 -0.7659677040142068 -0.2107611107588373 -0.032727294442169486 123 116 115 0.75 63 0 64 0 65 0 66 0 68 0 
1338 -0.7865728733285955 -0.21242975799942576 -0.03090397070277695 153 152 150 0.68 63 0 65 0 66 0 67 0 68 0 
1339 0.28711572898412663 -0.1452549942772688 -0.0012433829804010532 139 126 120 0.53 63 0 64 0 65 0 66 0 
1340 0.11786110829431151 -0.15430667350044175 0.022633144223036528 51 39 42 0.69 63 0 64 0 65 0 66 0 68 0 
1341 -0.19146781712337235 -0.1774639395155233 -0.01669575184200567 148 140 140 1.01 63 0 64 0 65 0 66 0 
1342 -0.6850985704804669 -0.20995265901578947 -0.028135737740216937 157 156 161 0.57 63 0 64 0 65 0 66 0 67 0 68 0 
1343 -0.7049500063137968 -0.21116279830185658 -0.03697279595117342 132 133 136 1.47 63 0 64 0 65 0 66 0 67 0 68 0 
1344 -0.13427874163734388 -0.17531567647121388 -0.005725069141563788 140 132 126 0.3 63 0 64 0 66 0 67 0 
1345 -0.8007797755917272 -0.22451924417431046 -0.02584105223711708 53 49 52 0.52 63 0 65 0 66 0 67 0 68 0 
1346 0.34692645376269593 -0.15617474544532473 0.014311763484019746 115 100 98 0.31 63 0 64 0 65 0 66 0 67 0 68 0 
1347 -0.7178466958709278 -0.22218692317767902 -0.019302020554857746 123 124 130 0.86 63 0 65 0 66 0 67 0 
1348 -0.7818140174428465 -0.22808311703492962 -0.033526370708589104 120 114 114 0.91 63 0 65 0 66 0 
1349 0.8175664557485018 -0.13024388896290812 0.025742523963345754 178 174 169 0.17 63 0 64 0 66 0 
1350 0.314947387381581 -0.16313443451924609 0.012183768691824914 143 136 133 0.65 63 0 64 0 65 0 66 0 67 0 
1351 -0.7846639521025744 -0.24141695117832984 -0.031373766546122894 144 150 158 0.49 63 0 64 0 65 0 66 0 67 0 68 0 
1352 -0.8040112595618365 -0.24292977116054593 -0.03178887675832187 105 103 100 0.46 63 0 65 0 66 0 67 0 68 0 
1353 -0.21366079922866232 -0.20492284744196337 -0.006457963404924882 162 156 156 0.4 63 0 65 0 66 0 
1354 0.9201635946447109 -0.14506587185225778 0.054570903821252736 41 28 30 0.32 63 0 64 0 65 0 66 0 67 0 
1355 0.26824164453104216 -0.18555930147226163 0.009925847232825413 62 55 58 0.54 63 0 65 0 66 0 68 0 
1356 1.0136088543714772 -0.14165683753390146 0.06390494389302592 51 40 46 0.22 63 0 64 0 65 0 66 0 67 0 68 0 
1357 1.1766994729803049 -0.13988203370330254 0.06687012220861677 52 40 45 0.32 63 0 65 0 66 0 67 0 
1358 0.31241044784527006 -0.18768552571007707 0.002791944970997884 144 133 135 0.55 63 0 65 0 66 0 
1359 -0.1875849610420044 -0.2212658984123304 -0.016643510887753177 142 132 127 0.4 63 0 64 0 66 0 
1360 0.48464260005655957 -0.18535335429440858 0.0315688494897417 163 154 155 0.53 63 0 66 0 68 0 
1361 0.9270337573717392 -0.17466711224608222 0.0595478523490196 54 37 43 0.3 63 0 65 0 66 0 
1362 0.31544423551180323 -0.2126665626140784 0.028924091920161654 111 92 92 0.95 63 0 65 0 66 0 67 0 
1363 0.3501232528749595 -0.21600875797360725 0.01929649382875054 165 157 157 0.86 63 0 65 0 66 0 
1364 0.20612162322426852 -0.22307064607558985 0.028459762773933583 59 41 47 0.62 63 0 64 0 65 0 66 0 67 0 
1365 1.2634705244098585 -0.17709387301658575 0.044445228689981464 138 135 136 0.63 63 0 65 0 66 0 67 0 68 0 
1366 -0.7830252326358467 -0.2843862734592537 -0.029114315876393126 151 148 148 0.38 63 0 64 0 65 0 66 0 67 0 
1367 0.017755857833401167 -0.25030803665361967 0.01514926071493461 35 25 30 0.81 63 0 64 0 65 0 66 0 67 0 
1368 0.675590164590419 -0.22445863058492688 0.028724255203361082 130 118 119 0.34 63 0 64 0 66 0 
1369 0.269096851591474 -0.24491233636015564 0.013757664008742676 56 55 57 0.41 63 0 65 0 66 0 67 0 68 0 
1370 1.3986530645223685 -0.20248545495968417 0.057454566943459184 128 122 121 0.58 63 0 64 0 65 0 66 0 67 0 
1371 1.2320001590832568 -0.21339079030616104 0.05165364420097984 81 92 111 0.73 63 0 66 0 68 0 
1372 -0.04598234880396945 -0.2757178845158622 0.019314182566699367 61 42 46 0.66 63 0 64 0 65 0 66 0 67 0 
1373 -0.08695792722932327 -0.2775030109338751 0.013021569300637248 43 31 36 0.41 63 0 64 0 65 0 66 0 67 0 
1374 0.11512114183005617 -0.27113072909166436 0.025489452200164298 55 37 39 0.47 63 0 64 0 65 0 66 0 67 0 68 0 
1375 -0.8027284594334161 -0.3154969488855391 -0.029866616863436946 110 101 97 0.8 63 0 64 0 66 0 68 0 
1376 0.07395294895766003 -0.2752663142479037 0.022914033576595605 39 24 28 0.31 63 0 64 0 65 0 66 0 67 0 
1377 0.3605621249554102 -0.27080833470785837 0.017183631974892366 139 124 123 0.33 63 0 64 0 66 0 
1378 0.8152078708180641 -0.2551977239584896 0.037709088967459836 123 108 105 0.69 63 0 64 0 66 0 67 0 
1379 0.28543420059472324 -0.28391635727579106 0.03159545767546934 101 91 93 1.31 63 0 64 0 66 0 
1380 1.0123159221670115 -0.26151769415157045 0.06825117560507699 48 36 40 0.44 63 0 64 0 65 0 66 0 67 0 68 0 
1381 -0.08504158459038247 -0.3024153008771066 0.017611495161816926 38 26 30 0.27 63 0 64 0 65 0 66 0 
1382 1.0957882755504296 -0.2606150483505355 0.07307238120686321 55 38 42 0.26 63 0 64 0 65 0 66 0 67 0 68 0 
1383 0.30969325353027166 -0.2908264721177346 0.01605842958383996 125 113 112 0.7 63 0 64 0 65 0 66 0 67 0 68 0 
1384 -0.7305568692966 -0.342514815923441 -0.027266143029864187 114 112 115 0.68 63 0 64 0 65 0 66 0 67 0 68 0 
1385 0.29231599493728344 -0.3163677494136661 0.01085331143696111 119 106 96 0.26 63 0 64 0 66 0 
1386 -0.7295841790261937 -0.3561262486398434 -0.026261620500577676 115 116 117 0.55 63 0 64 0 65 0 66 0 67 0 
1387 -0.7516735527262999 -0.35745137879218525 -0.03066253408966002 138 139 140 0.81 63 0 65 0 66 0 67 0 
1388 -0.11136002550138757 -0.33587119129462895 0.004588066118917267 98 81 81 0.3 63 0 65 0 66 0 
1389 -0.722195419548765 -0.3745540427885683 -0.0218661627420087 123 124 122 0.6 63 0 65 0 66 0 68 0 
1390 0.8375042232713228 -0.3317568069700323 0.04672096018798566 158 152 147 0.57 63 0 64 0 65 0 66 0 67 0 
1391 -0.11246737466286993 -0.36436608868643583 0.0020051758938106623 67 48 49 0.1 63 0 65 0 66 0 
1392 -0.7406638414723774 -0.38773316538806624 -0.027309957692168485 133 133 136 0.79 63 0 64 0 65 0 66 0 68 0 
1393 -0.7872128245452328 -0.4017024932908352 -0.029708479493791407 137 136 138 0.62 63 0 66 0 67 0 68 0 
1394 -0.7612241442307257 -0.4025952764942334 -0.0229212521015576 117 115 116 0.61 63 0 64 0 65 0 66 0 68 0 
1395 0.4268803850617464 -0.3757785411403446 0.028966535472266797 106 91 91 1.11 63 0 65 0 66 0 67 0 68 0 
1396 0.3294287051521084 -0.3769651262858578 0.02778323346518441 151 141 138 0.79 63 0 64 0 65 0 66 0 68 0 
1397 -0.11234767528951228 -0.39192167000527445 0.003601636450698553 76 60 62 0.46 63 0 64 0 65 0 66 0 
1398 -0.7716816723306632 -0.4170948900025669 -0.030693988334085986 119 116 119 0.93 63 0 65 0 66 0 67 0 68 0 
1399 0.7013593113723238 -0.3879987618369998 0.03511571775628708 109 101 103 0.17 63 0 64 0 66 0 
1400 0.45828607554031875 -0.39076064909095937 0.02106618810689409 120 103 105 0.27 63 0 65 0 66 0 
1401 -0.11187388232531625 -0.4217617175170747 0.006274549508106464 87 72 73 0.3 63 0 65 0 66 0 
1402 -0.1986338108649317 -0.428423127867994 -0.03257495063719196 93 93 94 1.42 63 0 65 0 66 0 
1403 0.5568714498943245 -0.418274949476072 0.0351812056371803 87 73 74 0.14 63 0 64 0 66 0 
1404 -0.13703926443977132 -0.4356978839410359 0.0056408644142456055 120 102 98 0.39 63 0 65 0 66 0 
1405 -0.7809475598483899 -0.45930884741894734 -0.021600103966856965 126 126 128 0.74 63 0 65 0 66 0 67 0 68 0 
1406 0.2775246485470979 -0.4476313766037791 0.04382567197781673 58 46 50 0.23 63 0 66 0 68 0 
1407 -0.750603361424014 -0.4715848247761528 -0.02396504479057593 92 92 92 0.3 63 0 64 0 65 0 66 0 67 0 
1408 1.1789280298957767 -0.4741537730135702 0.08074198002409028 42 31 35 0.22 63 0 65 0 66 0 67 0 68 0 
1409 -0.7529830693921287 -0.48883128018611527 -0.02194001876707219 98 102 101 0.35 63 0 64 0 65 0 66 0 68 0 
1410 -0.7311546179300341 -0.48977296552941035 -0.01911351991467769 116 108 112 0.39 63 0 64 0 65 0 66 0 67 0 68 0 
1411 0.40296183235571736 -0.4780577137013674 0.024898471085036844 157 154 154 0.6 63 0 64 0 65 0 66 0 67 0 68 0 
1412 -0.11286025428922764 -0.48281244806179036 0.0059407533464965745 102 89 88 0.44 63 0 64 0 65 0 66 0 
1413 -0.14352997022324354 -0.4827304794793812 0.002332637176657215 130 129 119 0.23 63 0 64 0 65 0 66 0 
1414 0.7944175604358694 -0.4872375892705503 0.04113313987056677 125 121 122 0.78 63 0 65 0 66 0 
1415 0.4080550313270418 -0.49086490045772396 0.028837422725518813 108 98 91 0.33 63 0 64 0 66 0 67 0 
1416 0.3448461989120879 -0.49360146367860624 0.022688105893038157 102 85 84 0.48 63 0 64 0 66 0 67 0 
1417 -0.7499581572414507 -0.5050979405718503 -0.015741029663662642 119 120 119 0.53 63 0 64 0 65 0 66 0 67 0 68 0 
1418 0.4272141527768376 -0.5036765046623517 0.028702062615738377 86 90 94 0.75 63 0 64 0 65 0 66 0 67 0 68 0 
1419 1.1752289829052947 -0.5154492646610468 0.07834519484227154 55 39 43 0.46 63 0 64 0 65 0 66 0 67 0 68 0 
1420 0.47774231273061907 -0.507575169412466 0.03457949775051694 162 157 155 0.15 63 0 64 0 66 0 
1421 0.31149460530462103 -0.509478279084425 0.02607528136482684 132 116 106 0.96 63 0 64 0 65 0 66 0 67 0 
1422 -0.11027716729520254 -0.5108174643708492 0.01195591100729576 98 89 88 0.37 63 0 64 0 65 0 66 0 
1423 1.0082849491042687 -0.5183758138869736 0.06689759409212126 58 41 46 0.46 63 0 64 0 65 0 66 0 67 0 68 0 
1424 -0.7690419420768635 -0.51945213522431 -0.028690271766902642 96 88 90 0.74 63 0 65 0 66 0 67 0 68 0 
1425 0.3563897326526084 -0.5222091877290562 0.027441693924207256 111 98 92 0.95 63 0 65 0 66 0 67 0 
1426 -0.11242378508153461 -0.525795038223155 0.007965693418549247 108 100 99 0.35 63 0 64 0 65 0 66 0 
1427 -0.7993427563157154 -0.533872510388631 -0.02059954207554049 90 76 73 0.54 63 0 64 0 65 0 66 0 67 0 68 0 
1428 -0.7686232372900368 -0.5337799658832507 -0.02528448814251716 97 96 95 0.51 63 0 64 0 65 0 66 0 67 0 
1429 -0.7845245836565624 -0.5348893800859682 -0.020547999761436175 96 71 71 0.42 63 0 64 0 66 0 67 0 68 0 
1430 1.0842868917277906 -0.5487451885229894 0.08283779402132052 79 85 100 0.64 63 0 65 0 66 0 
1431 0.5276576034591086 -0.5390026802294607 0.03103844210377682 116 93 90 0.3 63 0 64 0 65 0 66 0 
1432 -0.8004010024731798 -0.5465823149349248 -0.016738179681645926 56 47 46 0.38 63 0 64 0 65 0 66 0 67 0 
1433 -0.13496260897248713 -0.5433119007959065 0.0028519793166015273 132 129 119 0.13 63 0 64 0 65 0 66 0 
1434 0.8541919175207131 -0.5612570046512211 0.04409144112466845 74 52 53 0.38 63 0 65 0 66 0 68 0 
1435 0.12932998765730774 -0.5516447074306599 0.03733414122675249 68 49 53 0.13 63 0 64 0 66 0 
1436 1.0855168664958212 -0.5705329004214004 0.06962695724988222 53 39 43 0.38 63 0 64 0 65 0 66 0 67 0 68 0 
1437 1.0114468789859834 -0.5710392159925021 0.07413722100756148 43 31 35 0.6 63 0 64 0 65 0 66 0 67 0 68 0 
1438 0.9194060471467662 -0.5689280718222868 0.06386262684173105 45 32 35 0.47 63 0 64 0 65 0 66 0 67 0 68 0 
1439 0.07347738573399187 -0.557652206696826 0.026701371249948647 146 155 169 0.48 63 0 64 0 65 0 66 0 67 0 
1440 0.7355982666518261 -0.5683079711962707 0.044558568353271655 99 74 73 0.58 63 0 64 0 65 0 66 0 67 0 
1441 0.863927825702623 -0.5804731676230136 0.0530015133151176 78 50 50 0.49 63 0 64 0 65 0 66 0 68 0 
1442 0.20640345581293862 -0.5785479035012012 0.04158743858450786 45 31 34 0.48 63 0 64 0 65 0 66 0 67 0 
1443 0.8161234876777923 -0.5944154157867955 0.05179566410029257 115 103 99 0.46 63 0 65 0 66 0 67 0 
1444 -0.8002277853944908 -0.5791101305880328 -0.017628724864373835 70 66 65 0.47 63 0 65 0 66 0 67 0 
1445 0.06987072698799146 -0.5836883345760018 0.027523562001201318 46 49 57 0.5 63 0 64 0 65 0 66 0 67 0 
1446 0.2717129322812313 -0.5868365908227879 0.025518188307117384 48 45 45 0.42 63 0 64 0 66 0 67 0 
1447 -0.7799208984516175 -0.5985304291445706 -0.017698496253249596 93 93 93 0.59 63 0 64 0 65 0 66 0 67 0 68 0 
1448 1.4010371261213923 -0.6472914280597855 0.07055535137238467 43 44 46 0.36 63 0 64 0 66 0 67 0 
1449 0.3329445076185882 -0.6135917986428705 0.028578365266318073 120 116 116 0.91 63 0 64 0 66 0 68 0 
1450 0.017176592193005824 -0.6113091045532505 0.03793350677843543 64 40 45 0.15 63 0 65 0 66 0 
1451 -0.7996057611603573 -0.6078758424485857 -0.00977444749923606 74 77 66 0.59 63 0 66 0 67 0 
1452 0.015576683987234441 -0.6357937269215732 0.038573998483005134 117 114 117 0.39 63 0 64 0 65 0 66 0 67 0 
1453 1.018847086648649 -0.6695793584629426 0.07881246445491241 49 36 41 0.4 63 0 64 0 65 0 66 0 67 0 68 0 
1454 -0.1323514380188897 -0.6335679325532226 0.009807079464584811 117 98 85 0.4 63 0 64 0 65 0 66 0 
1455 0.27482860392855546 -0.6471077034647525 0.027622793096369502 68 76 79 0.25 63 0 64 0 65 0 66 0 67 0 68 0 
1456 0.04648423674250379 -0.6506975014107996 0.03939744463898198 56 45 51 0.68 63 0 64 0 66 0 67 0 
1457 -0.7198949061903572 -0.6387636776839827 -0.020409749861698412 93 99 103 1.19 63 0 65 0 66 0 68 0 
1458 -0.738879702672534 -0.6396483985146604 -0.015988668899295844 95 92 93 0.22 63 0 64 0 65 0 66 0 67 0 68 0 
1459 -0.7569371265951426 -0.6397820506637244 -0.018816810028954523 90 85 83 0.67 63 0 64 0 65 0 66 0 67 0 
1460 0.46723665086481314 -0.6682940086721081 0.029090916694204383 68 66 64 0.35 63 0 64 0 66 0 67 0 
1461 -0.7163501372093819 -0.6539723078101296 -0.014835971345094512 63 66 64 0.53 63 0 64 0 65 0 66 0 67 0 68 0 
1462 -0.743466467873352 -0.6542595405053051 -0.01697403584839674 104 115 118 0.5 63 0 64 0 65 0 66 0 67 0 68 0 
1463 -0.7585327514376363 -0.6541512113679784 -0.017771374438985132 64 61 56 0.35 63 0 64 0 65 0 66 0 
1464 0.4434892085960258 -0.6919791619007709 0.03266725289318462 89 103 99 0.57 63 0 65 0 66 0 
1465 -0.7435256472606067 -0.6739769610905813 -0.01976050769958526 88 91 92 0.43 63 0 64 0 65 0 66 0 67 0 
1466 1.346291467319019 -0.7361102792702521 -0.15881747712516536 43 47 47 0.25 63 0 64 0 65 0 66 0 67 0 
1467 -0.22389985602117535 -0.7112911890209223 0.002666360953596847 60 51 47 0.39 63 0 65 0 66 0 
1468 1.395450617634594 -0.7419146457147808 -0.27844545672438614 51 50 56 0.43 63 0 65 0 66 0 
1469 -0.07756274013484799 -0.7245263620216638 0.035974814897588914 38 34 42 0.18 63 0 64 0 65 0 66 0 67 0 
1470 -0.741805785558546 -0.7127441784636681 -0.015302835150817762 28 27 25 0.35 63 0 64 0 65 0 66 0 68 0 
1471 -0.1882426461667266 -0.7291317135177448 0.0047436611851101596 72 67 66 0.42 63 0 64 0 66 0 
1472 -0.6748445521898108 -0.7144312278552953 -0.019992052095094248 20 20 17 0.84 63 0 64 0 65 0 66 0 67 0 
1473 0.4981815970934085 -0.7389928397151783 -0.09842892015681204 82 92 95 1.01 63 0 66 0 67 0 
1474 -0.720834262755141 -0.7173453360831784 -0.012880607933516863 21 22 21 1.26 63 0 65 0 66 0 67 0 
1475 0.471871328842303 -0.7461779840298489 -0.08407585938193973 117 119 123 0.37 63 0 66 0 67 0 
1476 -0.5193455230658581 -0.7058388174550123 -0.2551138035124112 39 42 40 0.57 63 0 64 0 65 0 66 0 67 0 68 0 
1477 -0.6700498989979815 -0.724366692462258 -0.1809439895930638 78 78 78 0.7 63 0 64 0 65 0 66 0 
1478 -0.0259462168344311 -0.7536629941005828 -0.30107511139536913 69 68 76 0.48 63 0 64 0 65 0 66 0 67 0 68 0 
1479 3.830990764294625 2.653990651200525 0.9736759690760783 179 217 227 0.44 64 0 65 0 66 0 
1480 0.48827556602422895 0.9419205561704582 -0.011431250894077705 168 175 180 0.2 64 0 66 0 68 0 
1481 3.3527981385776298 2.5425465960521376 1.102058601243948 188 199 207 0.4 64 0 65 0 66 0 
1482 4.38391230439013 2.8761407846574887 1.2022052569444233 180 216 225 1.4 64 0 65 0 66 0 
1483 4.25660115126108 2.5966077646164303 0.9079438909687135 209 241 255 0.37 64 0 65 0 66 0 67 0 68 0 
1484 3.708052806777329 2.5543101079172486 1.1663857554255888 142 171 186 0.19 64 0 65 0 66 0 
1485 -0.11846789541227776 0.6747172438447311 -0.03391836779028168 177 177 175 0.71 64 0 65 0 66 0 68 0 
1486 4.316342713597228 2.5345927876054946 0.9689502125894377 180 227 249 0.48 64 0 65 0 66 0 67 0 68 0 
1487 -0.5697205931026534 0.5436031219124136 -0.049584903509217515 185 177 172 0.6 64 0 65 0 66 0 67 0 
1488 -0.004035812622698032 0.698068321451873 -0.02101745970422031 179 177 177 0.57 64 0 65 0 66 0 67 0 
1489 3.933340698492683 2.550806303224307 1.2172410185923848 117 152 149 0.49 64 0 65 0 66 0 
1490 0.16470463678928127 0.7214474620736053 -0.038528003208921247 160 152 155 1.07 64 0 65 0 66 0 67 0 
1491 -0.02718159837652645 0.6696191783700824 -0.03321333792556702 138 133 137 0.83 64 0 65 0 66 0 
1492 -0.2786628751899569 0.6107625588566445 -0.03257188078084616 157 165 168 0.46 64 0 65 0 66 0 67 0 68 0 
1493 -0.5248207602236565 0.5347512365258345 -0.045058216268484275 198 196 191 0.61 64 0 66 0 68 0 
1494 4.495896405686823 2.601080798529976 1.1865031833679192 233 250 254 0.54 64 0 66 0 67 0 
1495 -0.5442140984137025 0.5181547582427088 -0.04299135098253615 160 159 157 1.17 64 0 65 0 66 0 67 0 
1496 -0.736354320175326 0.47025932652368757 -0.050529689244207976 162 151 148 0.37 64 0 65 0 66 0 67 0 68 0 
1497 -0.5198854163711335 0.5115879854146044 -0.0514112166005829 188 186 187 0.38 64 0 66 0 68 0 
1498 5.392440603400669 2.896655320027002 1.544307614608479 196 232 249 0.75 64 0 65 0 66 0 67 0 
1499 -0.41842570991132333 0.4972165186210437 -0.022571126836914868 160 163 164 0.54 64 0 65 0 66 0 67 0 68 0 
1500 -0.73116915388175 0.40432768011614056 -0.052780260607393714 165 162 158 0.4 64 0 65 0 66 0 67 0 68 0 
1501 -0.6367677594576584 0.4194468008427891 -0.05058925414067983 144 129 118 0.29 64 0 66 0 67 0 68 0 
1502 -0.7573505423633304 0.3940420728985026 -0.04810336910952939 162 166 164 0.51 64 0 65 0 66 0 
1503 -0.6599621551561379 0.40387750098037206 -0.048586260708640916 128 146 155 0.4 64 0 65 0 66 0 67 0 
1504 -0.6595359198828821 0.3941122835982778 -0.045743909766269075 151 146 143 0.37 64 0 65 0 66 0 67 0 
1505 -0.6404258043291329 0.39237541492644684 -0.04958572860998478 170 167 164 0.24 64 0 65 0 66 0 67 0 68 0 
1506 -0.701154469458876 0.37712269941633386 -0.04711746687782381 142 134 132 1.32 64 0 66 0 67 0 
1507 -0.6197695394259499 0.3750268880199758 -0.042095517268871285 178 166 160 0.39 64 0 65 0 66 0 68 0 
1508 -0.6322179070477716 0.3589948499425097 -0.046900652730263115 155 148 140 0.61 64 0 65 0 66 0 67 0 
1509 -0.6648747227437011 0.34140616427159437 -0.050498923629043624 177 170 166 0.78 64 0 65 0 66 0 67 0 
1510 -0.7272019967070436 0.3262335353754809 -0.048434476200174714 181 170 160 0.86 64 0 65 0 66 0 67 0 68 0 
1511 -0.7471996291974541 0.31081248930933086 -0.04988183335581464 166 158 153 0.39 64 0 65 0 66 0 67 0 
1512 -0.46739679010584645 0.3548463748205845 -0.05024895648423788 179 177 175 1.23 64 0 65 0 66 0 
1513 -0.6222082513460849 0.32653928300469554 -0.042717345767831594 157 160 159 0.51 64 0 65 0 66 0 68 0 
1514 -0.67416635402724 0.30517447549379245 -0.04951536780792387 128 137 143 0.28 64 0 65 0 66 0 
1515 -0.6208335188962255 0.3157412117852784 -0.0426799442616872 174 175 174 0.48 64 0 65 0 66 0 68 0 
1516 -0.45277751959333234 0.31580865369108774 -0.04377173202135487 102 109 124 0.62 64 0 66 0 67 0 68 0 
1517 -0.78924862591896 0.25331674977252056 -0.04436940079801266 94 96 103 0.42 64 0 65 0 66 0 67 0 
1518 0.3004911939952766 0.47030050884838576 -0.003952477792171116 111 116 129 0.34 64 0 65 0 66 0 
1519 1.7659019630504313 0.7582970903691868 0.026394150271351613 100 102 105 0.38 64 0 65 0 66 0 
1520 -0.6439213735361713 0.2503596440951165 -0.04384506404843935 189 179 169 0.55 64 0 65 0 66 0 67 0 68 0 
1521 -0.8090019068048286 0.21747961264295473 -0.044130699911267834 117 128 134 0.15 64 0 65 0 66 0 
1522 -0.7887961983248679 0.21542771429765845 -0.04979056919283176 105 104 108 0.23 64 0 65 0 66 0 68 0 
1523 -0.23019950112631138 0.31682744407609337 -0.02787531380839492 128 118 118 0.33 64 0 65 0 66 0 67 0 68 0 
1524 -0.38374411518591955 0.27838689883080586 -0.042811219385801236 164 156 153 0.99 64 0 65 0 66 0 67 0 
1525 -0.5973901379535875 0.23443460639061015 -0.04004831727856484 174 166 157 1.08 64 0 65 0 66 0 67 0 68 0 
1526 -0.507791081575256 0.24982059374393856 -0.0359371798685888 185 188 188 0.38 64 0 65 0 66 0 
1527 -0.7298811101946805 0.2020966372409378 -0.047171480930353615 115 117 117 0.65 64 0 65 0 66 0 67 0 68 0 
1528 -0.5068757057523217 0.23877289109421657 -0.03572070366246405 149 143 144 0.54 64 0 66 0 67 0 68 0 
1529 0.21979651012866808 0.35468561222612677 -0.01575137166053886 103 110 119 0.27 64 0 66 0 67 0 
1530 0.8385656473048286 0.4744692476905002 0.017617475057576826 115 120 127 0.44 64 0 66 0 67 0 68 0 
1531 -0.6225379924680872 0.20056173289069085 -0.035545122898954284 133 124 123 0.45 64 0 65 0 66 0 67 0 
1532 1.8995425237754366 0.6714322442781389 0.03950954171807641 142 142 135 0.63 64 0 66 0 68 0 
1533 -0.15488666981146015 0.2650239969610217 -0.001265746223570119 157 149 151 1.43 64 0 66 0 68 0 
1534 -0.5727583934368601 0.18725162753859997 -0.034604718317298166 167 157 149 0.67 64 0 66 0 68 0 
1535 -0.6307055254907592 0.17642706983679207 -0.03867171292210925 144 143 141 0.75 64 0 65 0 66 0 67 0 
1536 0.6939276763938933 0.4064375992693345 0.015060450553476601 112 106 115 0.24 64 0 65 0 66 0 68 0 
1537 -0.3308286262960787 0.2169765730082311 -0.03032435706659964 84 85 96 0.59 64 0 65 0 66 0 67 0 68 0 
1538 -0.4829937568255738 0.1894651479091764 -0.03558366095323162 121 115 118 0.23 64 0 65 0 66 0 68 0 
1539 -0.6271368033071882 0.162447643031216 -0.04735003844583674 150 144 138 1.08 64 0 65 0 66 0 
1540 -0.7562580561449779 0.14266986203336046 -0.04102685000852335 117 104 102 0.1 64 0 65 0 66 0 
1541 0.7500236535213114 0.3976398427085958 0.016649950864812135 177 170 166 0.42 64 0 66 0 68 0 
1542 0.10699082722080022 0.27413354393258044 -0.007108876523771235 165 160 159 0.96 64 0 65 0 66 0 68 0 
1543 0.4277532639355772 0.3259881142984619 0.0030596316135673707 152 142 137 0.4 64 0 66 0 68 0 
1544 -0.6633747608199978 0.14444393416965956 -0.036430939258991435 118 117 117 0.49 64 0 65 0 66 0 67 0 
1545 -0.7377897746704132 0.12998459270796087 -0.03962265215399974 167 161 150 1.13 64 0 65 0 66 0 68 0 
1546 0.040144319151451224 0.23939915019758912 -0.012693849432196425 166 152 145 0.47 64 0 65 0 66 0 
1547 -0.7274085756695461 0.11535965133589493 -0.04143450384670144 150 147 139 0.62 64 0 65 0 66 0 68 0 
1548 -0.61304768814223 0.12881075689930904 -0.03600863711479918 121 112 103 0.4 64 0 65 0 66 0 67 0 
1549 1.092620856172556 0.4157685786967615 0.04666616993606576 156 163 167 1.2 64 0 65 0 66 0 68 0 
1550 -0.6932780144552917 0.1115821082790106 -0.04634910726812436 163 165 167 0.79 64 0 65 0 66 0 68 0 
1551 -0.33390840063235006 0.1596594569399296 -0.02815007641208922 139 126 126 0.53 64 0 65 0 66 0 68 0 
1552 -0.6601914669927929 0.11338018732855587 -0.03596204393160618 118 129 140 0.68 64 0 65 0 66 0 67 0 
1553 -0.6154558852863898 0.1156439260067405 -0.041628794104923816 172 164 154 0.38 64 0 66 0 67 0 
1554 -0.7101275418443178 0.10230687532838134 -0.036000726020412044 156 145 136 0.77 64 0 65 0 66 0 67 0 68 0 
1555 0.14224768833698587 0.21991126397971467 -0.014605646879371381 109 104 110 0.67 64 0 65 0 66 0 67 0 
1556 -0.7400271248120875 0.08657101744847118 -0.032896823789433816 197 195 187 1.13 64 0 65 0 66 0 68 0 
1557 -0.554178509072039 0.10377285745007292 -0.03735866303831181 146 143 141 0.55 64 0 65 0 66 0 
1558 -0.3972871630635806 0.12124523884595267 -0.021514000296520397 156 151 145 0.68 64 0 65 0 66 0 68 0 
1559 -0.2308726863373043 0.13072054762971547 -0.03282863854797391 176 177 177 0.76 64 0 65 0 66 0 67 0 
1560 -0.634689725173099 0.07215492539780138 -0.03670025013383116 161 173 173 0.35 64 0 65 0 66 0 68 0 
1561 -0.5979864085380764 0.06150391694933949 -0.02996567106367931 97 96 97 0.2 64 0 65 0 66 0 
1562 -0.21814886168162873 0.07246207184877829 -0.025640504272745 125 123 125 0.51 64 0 65 0 66 0 67 0 68 0 
1563 0.2989202741493524 0.137876029466468 0.0037387762808589464 133 122 123 0.32 64 0 65 0 66 0 67 0 
1564 -0.6703860796007768 -0.013422854487754543 -0.03873407371174564 154 156 161 0.42 64 0 65 0 66 0 67 0 
1565 -0.3471686025422209 0.004146595826801436 -0.020308283429746554 140 133 135 0.64 64 0 65 0 66 0 
1566 -0.7242329791340887 -0.04003269881660543 -0.0314981580352518 111 112 114 0.06 64 0 65 0 66 0 
1567 -0.566001906700649 -0.025771929297515095 -0.022514264942937512 200 195 189 0.55 64 0 66 0 68 0 
1568 -0.5456498719192309 -0.02597377631680231 -0.028743224240110887 167 166 167 0.32 64 0 65 0 66 0 68 0 
1569 -0.6095885900780462 -0.03706239929488231 -0.024318791387148986 104 96 91 0.59 64 0 65 0 66 0 67 0 68 0 
1570 -0.6303848896858681 -0.03947961339303946 -0.02993369664495904 130 126 122 0.39 64 0 65 0 66 0 67 0 68 0 
1571 -0.6984411500525223 -0.0569827077204198 -0.03160294080238679 184 188 195 0.34 64 0 65 0 66 0 
1572 0.07734646683377688 0.009383968526858966 -0.0014908065150345262 124 121 117 0.78 64 0 65 0 66 0 67 0 
1573 -0.7314131895431781 -0.07895965999612198 -0.03700272337524524 163 172 181 0.7 64 0 66 0 67 0 
1574 -0.6474944698439571 -0.06770521210134839 -0.023999423052879942 138 143 145 0.47 64 0 65 0 66 0 
1575 -0.7834314569208154 -0.08389053760625048 -0.03493048893842143 89 74 76 0.35 64 0 65 0 66 0 67 0 68 0 
1576 0.0017563555789921192 -0.0054922766400118395 -0.004463684454217631 148 138 134 0.34 64 0 66 0 68 0 
1577 -0.5704629419624356 -0.06562266090526553 -0.023155329275618808 139 136 137 0.37 64 0 66 0 67 0 68 0 
1578 -0.6133403618318296 -0.07508412061554731 -0.029421943329992706 131 128 130 0.33 64 0 65 0 66 0 67 0 
1579 0.5164329947292162 0.03980767633442722 0.004846426956970573 174 176 178 0.8 64 0 65 0 66 0 67 0 68 0 
1580 -0.6691025565565647 -0.08645364773698899 -0.03320942723699005 105 106 116 0.93 64 0 65 0 66 0 
1581 -0.578750572917577 -0.08381613451382613 -0.032582431620329366 132 134 136 0.74 64 0 66 0 68 0 
1582 -0.587371100891626 -0.08552388939036437 -0.02994240735075193 76 74 84 0.25 64 0 65 0 66 0 67 0 68 0 
1583 -0.11002804272586175 -0.04921826341916247 -0.016481707342866025 118 114 113 0.54 64 0 65 0 66 0 
1584 -0.5919208909044023 -0.09671494435519462 -0.027682339591337035 157 156 154 0.37 64 0 66 0 67 0 68 0 
1585 -0.592954853849502 -0.11029002037301133 -0.027245141576524468 146 142 142 0.43 64 0 65 0 66 0 67 0 
1586 -0.5879736174173757 -0.12483004592135732 -0.026043663830749963 123 116 112 0.58 64 0 65 0 66 0 67 0 68 0 
1587 -0.046617844915956885 -0.08807064375455598 -0.005456588892500225 76 65 68 0.49 64 0 65 0 66 0 67 0 
1588 -0.6098045350095935 -0.13865592550955486 -0.027884693237187896 168 170 167 0.33 64 0 65 0 66 0 67 0 
1589 -0.24385048789949737 -0.11809990970518436 -0.009268408727716837 152 147 147 0.97 64 0 65 0 66 0 
1590 -0.6404659618761248 -0.1633292969577581 -0.015989182622999643 130 128 128 1.03 64 0 65 0 66 0 67 0 
1591 -0.7757986046334577 -0.1842185363655124 -0.03447849791761359 114 113 123 0.35 64 0 65 0 66 0 67 0 68 0 
1592 -0.6943192714366191 -0.17874763919858605 -0.02857248753700481 149 152 156 0.52 64 0 65 0 66 0 68 0 
1593 -0.7158586507218985 -0.17883869234773214 -0.022437967297298522 136 137 144 0.65 64 0 65 0 66 0 67 0 68 0 
1594 -0.20555715070613578 -0.1509223761109061 -0.007938516281183361 85 79 87 0.4 64 0 65 0 66 0 
1595 -0.6362344645273768 -0.19550225093029927 -0.027080342862028095 126 126 126 0.36 64 0 65 0 66 0 67 0 68 0 
1596 -0.655215073519406 -0.19775739374959939 -0.029865934210511202 149 150 151 0.35 64 0 65 0 66 0 68 0 
1597 -0.15794195280701784 -0.16106944820447505 -0.005504404815451114 158 153 146 0.64 64 0 66 0 67 0 
1598 -0.05263321309612623 -0.1551639245765985 0.015182690319644143 45 32 36 0.75 64 0 65 0 66 0 67 0 
1599 -0.11822618319411382 -0.16356115901200408 -0.011622626388739343 131 111 108 0.31 64 0 65 0 66 0 
1600 -0.6354219652110957 -0.20990251221688927 -0.02475914840171245 129 129 130 0.48 64 0 65 0 66 0 67 0 68 0 
1601 0.3946739997787523 -0.14312589245345658 0.015823248307982762 127 130 139 0.67 64 0 65 0 66 0 67 0 
1602 -0.6602350593059618 -0.22272570466055908 -0.02721877891130986 145 149 149 0.46 64 0 65 0 66 0 67 0 68 0 
1603 0.43551831943416563 -0.15491488411299598 0.025508181797123886 114 104 107 0.81 64 0 65 0 66 0 
1604 1.0844107725078618 -0.14322343950686817 0.061026022308991124 49 35 40 0.39 64 0 65 0 66 0 67 0 68 0 
1605 -0.14420944491510035 -0.21976636590043525 -0.009622227657084315 119 110 105 0.2 64 0 65 0 66 0 
1606 -0.7530245293774405 -0.25649407757342896 -0.03141304056306993 185 181 175 0.28 64 0 66 0 67 0 
1607 1.2624465339086184 -0.14470075593405052 0.04046016877468728 158 160 162 0.18 64 0 66 0 68 0 
1608 -0.6769518350876038 -0.25591619268903554 -0.025232688665361103 171 187 198 0.24 64 0 65 0 66 0 
1609 1.4760353082605806 -0.16424663187633531 -0.11626525051160086 43 57 51 0.44 64 0 66 0 67 0 68 0 
1610 -0.7854666756878774 -0.26820915519045707 -0.02552577147954538 137 137 136 0.38 64 0 65 0 66 0 67 0 
1611 1.5455817464325223 -0.16056858160103094 0.06940731507126618 70 68 79 0.59 64 0 65 0 66 0 67 0 
1612 1.0118765002892534 -0.2118229000691722 0.06629294926404672 61 45 52 0.71 64 0 65 0 66 0 67 0 68 0 
1613 1.2767781211924054 -0.21035306869923637 0.05737910267351953 146 149 153 0.31 64 0 65 0 66 0 
1614 -0.802743645531723 -0.33043178483383057 -0.027566472263656383 73 58 60 0.21 64 0 66 0 67 0 68 0 
1615 1.5537568078772312 -0.2567371388991508 0.016003484187512296 131 114 102 0.88 64 0 66 0 67 0 
1616 -0.15953380737730982 -0.30709484002271764 -0.004262818174066929 98 84 80 0.19 64 0 65 0 66 0 
1617 -0.11520706978646067 -0.3072104377763708 -0.004598878197407563 101 83 83 0.35 64 0 65 0 66 0 
1618 -0.7814009656602736 -0.3427500534085465 -0.027601911212187247 110 108 110 0.74 64 0 65 0 66 0 67 0 
1619 -0.7443037160337651 -0.34140229310084375 -0.02583017344069538 151 153 153 0.32 64 0 65 0 66 0 67 0 68 0 
1620 -0.6928992597340513 -0.3422554263190751 -0.021678458067765582 139 143 147 0.61 64 0 65 0 66 0 68 0 
1621 -0.7804478095552083 -0.3603451663536122 -0.027131738763990887 151 150 150 0.55 64 0 65 0 66 0 67 0 68 0 
1622 -0.6945570869458597 -0.35852649835525197 -0.028240600732150734 114 113 120 0.2 64 0 66 0 68 0 
1623 -0.7845521117959995 -0.38808442108902536 -0.02098729756555917 122 111 112 0.46 64 0 66 0 68 0 
1624 -0.8035272087604346 -0.388493436817716 -0.02694976548526018 69 66 67 0.31 64 0 66 0 68 0 
1625 -0.7300941446922677 -0.40097848275118253 -0.024306874030149306 155 156 156 0.66 64 0 65 0 66 0 67 0 68 0 
1626 0.2928926826414463 -0.3910960971889876 0.010626920408776552 96 81 82 0.17 64 0 66 0 67 0 
1627 -0.15690883830199365 -0.4104646254698247 -0.006447954633520547 111 96 95 0.33 64 0 65 0 66 0 
1628 -0.7647166616731069 -0.43204651357727986 -0.010546252041607751 112 102 101 0.98 64 0 66 0 67 0 68 0 
1629 1.0526947972667657 -0.4315008561269518 0.07604089911376222 45 27 30 0.87 64 0 66 0 67 0 
1630 0.33900926892768446 -0.43427852733324956 0.013179312083018369 119 98 97 0.4 64 0 65 0 66 0 67 0 
1631 0.7303725496203815 -0.45495425625855057 0.03771757799779607 125 104 97 0.54 64 0 65 0 66 0 
1632 -0.7245819264165765 -0.4586712990104958 -0.020235375825172985 134 141 151 0.32 64 0 65 0 66 0 67 0 
1633 -0.7342575955758741 -0.47300654662602454 -0.02225214983032786 104 102 100 0.47 64 0 65 0 66 0 67 0 68 0 
1634 -0.7665825489907903 -0.4753120758403532 -0.010536135638575361 96 83 84 0.49 64 0 65 0 66 0 67 0 68 0 
1635 0.8566591588800601 -0.5184435926046138 0.04242979747493436 56 36 40 0.26 64 0 66 0 67 0 
1636 -0.7424774955910265 -0.5049226223215872 -0.021920442760093417 138 137 139 0.21 64 0 65 0 66 0 
1637 -0.777786830445897 -0.5053136845046924 -0.021149112329513553 67 57 57 0.61 64 0 65 0 66 0 67 0 68 0 
1638 0.4251300234235378 -0.5193805280771091 0.03974434802266935 118 94 93 0.43 64 0 65 0 66 0 
1639 0.48218812143700807 -0.5357012101177789 0.01454920945141569 141 137 132 0.68 64 0 65 0 66 0 
1640 -0.7864528378845006 -0.520536071951325 -0.021320812627959373 82 64 65 0.42 64 0 65 0 66 0 67 0 68 0 
1641 1.1746901208790315 -0.5682326870069192 0.08181578777373111 42 31 34 0.26 64 0 65 0 66 0 67 0 68 0 
1642 -0.7831896833228029 -0.5629784286244127 -0.020525751689200344 123 118 115 0.49 64 0 65 0 66 0 67 0 68 0 
1643 0.8612990496048334 -0.6253800193750768 0.05226267843886556 77 50 51 0.2 64 0 66 0 68 0 
1644 -0.10750671670114187 -0.5892254798196263 0.018157278731081306 91 77 75 0.19 64 0 65 0 66 0 
1645 -0.15950172046885758 -0.5865181954745169 -0.011648406900872876 104 101 92 0.91 64 0 65 0 66 0 
1646 -0.7555691419793309 -0.5789326114737449 -0.01807789993434561 97 93 95 0.38 64 0 65 0 66 0 67 0 68 0 
1647 -0.775952369574076 -0.578861054650482 -0.01769372938527125 87 88 89 0.46 64 0 65 0 66 0 67 0 68 0 
1648 -0.7497130669394427 -0.595046706517232 -0.01441707068453546 86 87 87 0.39 64 0 65 0 66 0 67 0 68 0 
1649 0.2749281557599971 -0.6366453089268158 0.029285454594916382 54 40 42 0.39 64 0 65 0 66 0 
1650 -0.5286736057482315 -0.5691002949240619 -0.4096891508532037 44 56 56 0.54 64 0 65 0 66 0 
1651 1.5454951375291999 -0.7138947441467297 0.07153466047522627 36 36 39 0.41 64 0 66 0 67 0 68 0 
1652 -0.7703363522206228 -0.6091274298405006 -0.015825288178023644 92 87 87 0.34 64 0 65 0 66 0 67 0 
1653 -0.7436856862302321 -0.6100016747807093 -0.019316925694157216 96 85 84 1.25 64 0 65 0 66 0 67 0 68 0 
1654 -0.7544005356797248 -0.6234884436290632 -0.017181987584866665 98 94 93 0.7 64 0 65 0 66 0 67 0 
1655 -0.10990424910766072 -0.6485598342151784 0.0072457063934965316 74 61 70 0.52 64 0 65 0 66 0 
1656 -0.7391025146235628 -0.6254019188671237 -0.016831054247062438 106 102 100 0.51 64 0 65 0 66 0 67 0 68 0 
1657 1.2677778497339454 -0.7326982301644115 -0.10776667589966427 69 81 92 0.36 64 0 65 0 66 0 67 0 68 0 
1658 0.7610633017661507 -0.7233779431739821 -0.0535674627410494 86 96 104 0.3 64 0 65 0 66 0 67 0 68 0 
1659 0.38884307348610714 -0.718037191303277 0.002405322837849555 74 108 105 1.0 64 0 65 0 66 0 67 0 68 0 
1660 -0.14308545018848529 -0.709749239002229 0.007822912895651735 59 52 54 0.43 64 0 65 0 66 0 67 0 
1661 0.36524115163291504 -0.742729339400851 -0.1011686407845247 101 112 119 0.48 64 0 65 0 66 0 67 0 68 0 
1662 -0.7429784043924281 -0.6932179049348283 -0.014968256922873291 78 79 77 0.39 64 0 65 0 66 0 
1663 0.7849939480309449 -0.7521561839351552 -0.33365300091929595 97 88 101 0.45 64 0 65 0 66 0 67 0 
1664 -0.13751166745944476 -0.7376782572700569 0.010782685973323547 62 63 64 0.12 64 0 65 0 66 0 
1665 -0.17509900801599065 -0.7359069835067118 -0.029450608988042415 94 104 119 0.62 64 0 65 0 66 0 
1666 -0.18770209599734966 -0.7323148938439444 -0.03826147183058537 88 88 95 1.14 64 0 65 0 66 0 67 0 
1667 -0.5458997381104673 -0.7046906858718316 -0.23595887798989001 17 17 17 0.43 64 0 65 0 66 0 
1668 -0.7577079770814865 -0.7323745397739371 -0.03267733223562974 45 45 44 0.36 64 0 65 0 66 0 
1669 -0.15601511768154497 -0.7482824651241716 -0.17827677206337955 96 91 99 0.32 64 0 65 0 66 0 
1670 -0.6957649062696156 -0.7287436361817893 -0.1757530823459874 60 62 53 0.18 64 0 65 0 66 0 67 0 
1671 -0.7790953678507233 -0.7390967463858138 -0.1217467694700185 133 139 157 0.35 64 0 66 0 68 0 
1672 0.053316847249955446 -0.7561063024758358 -0.3899642716136762 76 74 84 0.19 64 0 65 0 66 0 
1673 -0.3447132854828123 -0.7481869246970876 -0.3794002523430542 102 119 132 0.68 64 0 66 0 67 0 
1674 -0.449388592414802 -0.7421471745975103 -0.4215878213872648 147 146 140 0.52 64 0 66 0 68 0 
1675 3.5228593612239334 2.623805740778231 0.699243214407451 218 244 254 0.42 65 0 66 0 67 0 68 0 
1676 3.5505754461269867 2.702927506444125 0.8009273130672405 144 161 181 0.67 65 0 66 0 68 0 
1677 3.4759193948907474 2.6677917027338705 0.79822797785452 108 153 190 0.97 65 0 66 0 67 0 68 0 
1678 3.6543826665027095 2.5925376926043175 0.619134179512439 187 229 249 0.22 65 0 66 0 67 0 
1679 3.634617111314166 2.961043709965271 1.1565003926059858 179 186 175 0.3 65 0 66 0 67 0 
1680 3.728272253821974 2.6763131807320106 0.7210868186992048 209 230 253 0.24 65 0 66 0 67 0 
1681 3.4092361549461367 2.837030287623498 1.1498458062482624 103 159 171 0.71 65 0 66 0 67 0 
1682 0.5479451782588393 0.9682289645407403 -0.003943529614595986 174 181 186 0.28 65 0 66 0 67 0 
1683 -0.11313152531023185 0.7124908494583424 -0.0332169890194105 127 122 127 0.17 65 0 66 0 67 0 
1684 3.5603854898051397 2.4932151992661904 0.6527071780032772 214 237 252 0.25 65 0 66 0 67 0 
1685 -0.7879567546420327 0.46982316401005914 -0.0544862397514827 97 80 80 0.08 65 0 66 0 67 0 
1686 -0.3755147688365261 0.5637778265122773 -0.0407674004904135 164 156 152 0.4 65 0 66 0 67 0 68 0 
1687 -0.5342866146077587 0.497833327214613 -0.04796157292539882 172 167 165 0.92 65 0 66 0 68 0 
1688 -0.7727923155632717 0.4231024304238635 -0.052249279257004844 134 140 136 0.35 65 0 66 0 67 0 
1689 4.123044265989247 2.6478004227209833 0.8930380116920061 199 229 241 0.38 65 0 66 0 67 0 
1690 4.931280790278584 2.8824904897203214 0.8555538172712338 205 231 250 0.46 65 0 66 0 67 0 68 0 
1691 0.025244498169429086 0.6565472252511133 -0.026241552043034355 149 162 173 0.09 65 0 66 0 67 0 
1692 -0.8105811526639977 0.3688098916991856 -0.05579016746163035 126 112 114 0.4 65 0 66 0 67 0 68 0 
1693 4.418723897622812 2.728432667605986 1.095612247510886 187 210 230 0.32 65 0 66 0 67 0 
1694 4.85375618153375 2.7132790765255543 0.8517266761818632 211 224 248 0.89 65 0 66 0 68 0 
1695 4.893158513917135 2.7563605936882314 0.9264474748875366 221 232 246 0.33 65 0 66 0 67 0 68 0 
1696 -0.7296210967566952 0.3923367779911641 -0.033922817153640095 181 177 170 1.47 65 0 66 0 67 0 
1697 4.81402446893239 2.650592178134416 0.8560057526714935 63 80 103 0.6 65 0 66 0 67 0 
1698 -0.38027190586042914 0.4816230247491568 -0.040538839687613404 146 139 142 0.44 65 0 66 0 68 0 
1699 4.180542026437786 2.5230864061332983 1.0180721972028586 107 171 196 0.25 65 0 66 0 67 0 
1700 4.840514068800491 2.6386379089663725 0.9322746086953535 182 205 241 0.76 65 0 66 0 67 0 
1701 4.878622486141179 2.7211578817019646 1.0704622910672703 224 237 253 0.57 65 0 66 0 67 0 68 0 
1702 4.943706617856249 2.6382735670585316 0.9033729829516909 88 113 138 0.52 65 0 66 0 67 0 
1703 -0.7757621222891595 0.3338923024766662 -0.038857455724220946 171 166 163 0.48 65 0 66 0 68 0 
1704 -0.7146659537010678 0.3435010369930542 -0.04981526325938268 174 167 158 0.49 65 0 66 0 67 0 68 0 
1705 4.843874974866916 2.5506526265573544 0.943392877329369 82 92 110 0.15 65 0 66 0 68 0 
1706 -0.4467557340864754 0.40746252301209623 -0.016688538429731725 170 161 154 0.93 65 0 66 0 67 0 
1707 4.89536609075177 2.466885789359516 0.9627678850848891 55 83 116 0.18 65 0 66 0 67 0 68 0 
1708 5.41247024145558 2.7775890926638915 1.2608857822384043 165 216 237 0.59 65 0 66 0 67 0 68 0 
1709 0.21244476829739 0.5764039914672714 -0.01802064152446059 151 124 120 0.89 65 0 66 0 67 0 68 0 
1710 5.211641725080899 2.73493153182258 1.354367495551968 180 229 247 0.4 65 0 66 0 67 0 
1711 -0.8101415752561416 0.27928459486842366 -0.049541566832689066 95 103 110 0.55 65 0 66 0 67 0 68 0 
1712 5.073261197356626 2.439504367981775 1.130826025903278 132 135 153 0.32 65 0 66 0 67 0 
1713 -0.7658372457211393 0.2557823256768503 -0.04511133431854697 102 111 117 0.31 65 0 66 0 67 0 68 0 
1714 1.5250667179487245 0.8790378357524928 0.034194200746747505 96 79 77 0.6 65 0 66 0 67 0 68 0 
1715 5.088517774568533 2.33161086893443 1.0432907254759929 58 73 94 0.47 65 0 66 0 68 0 
1716 -0.40775232436181086 0.3355378090980769 -0.028312634554155114 172 170 169 0.58 65 0 66 0 67 0 68 0 
1717 -0.7054757595054881 0.24466311682686154 -0.051816558299319526 197 201 205 0.38 65 0 66 0 67 0 
1718 5.021211292398503 2.3168455606996083 1.1396381661501935 69 82 94 0.78 65 0 66 0 67 0 68 0 
1719 0.683338241125161 0.6086884397696248 0.0003499064240024552 132 125 131 0.14 65 0 66 0 67 0 68 0 
1720 -0.7421271982139219 0.23163211911488973 -0.0466594324892482 173 171 162 0.16 65 0 66 0 67 0 
1721 7.304459194459483 3.1907267156177954 1.9914981108676095 103 185 214 0.44 65 0 66 0 67 0 
1722 -0.306199290426179 0.29816295495232853 -0.030258522771705598 168 174 178 0.51 65 0 66 0 68 0 
1723 -0.3193573486308152 0.2721915571116377 -0.026031077422402404 147 141 141 0.33 65 0 66 0 67 0 68 0 
1724 -0.807898201233306 0.12822594906831303 -0.043612275034512704 74 78 85 0.56 65 0 66 0 67 0 68 0 
1725 0.22275392398545957 0.3498092012915682 0.0041120077401026744 159 160 165 0.56 65 0 66 0 68 0 
1726 -0.6234024676992687 0.1450510978537402 -0.02936203195235998 111 91 93 0.6 65 0 66 0 68 0 
1727 -0.3900620282814218 0.17677056211178827 -0.030723057111168517 156 154 156 0.38 65 0 66 0 68 0 
1728 -0.7762956156983436 0.0930386173635927 -0.04273633330866544 105 114 117 0.33 65 0 66 0 67 0 
1729 0.14710911469623222 0.2773048747918893 -0.016045859586671263 147 153 156 0.43 65 0 66 0 67 0 
1730 -0.8079430356795652 0.06785575984212577 -0.043331395051933175 90 80 84 0.62 65 0 66 0 67 0 68 0 
1731 -0.7740907075642918 0.0686426685519066 -0.04743331011521135 124 122 124 0.5 65 0 66 0 67 0 68 0 
1732 -0.7916372390730724 0.06623028101173306 -0.04552702630990946 127 112 114 0.31 65 0 66 0 67 0 68 0 
1733 0.613017252186572 0.33991725589265126 0.017664583044187054 118 118 122 0.82 65 0 66 0 67 0 68 0 
1734 -0.06855981483255458 0.13043889158274719 -0.021743023302275732 81 95 111 0.37 65 0 66 0 67 0 
1735 -0.717365257826216 0.016267840756715668 -0.03502988159458709 155 151 150 0.32 65 0 66 0 67 0 
1736 -0.5481399972523853 0.015028638623080792 -0.043253529596721796 177 172 169 0.27 65 0 66 0 68 0 
1737 -0.26087845728474246 0.0675436788013754 -0.004323611181336284 131 119 123 0.81 65 0 66 0 67 0 
1738 -0.6106169662128373 -0.0006244307707097829 -0.03320676712485948 125 103 104 0.59 65 0 66 0 68 0 
1739 -0.5801360950937318 -0.012250963549701066 -0.03296353218819137 161 155 149 0.36 65 0 66 0 68 0 
1740 -0.5331066153475124 -0.014973060294388552 -0.028144093418849936 176 177 176 0.44 65 0 66 0 68 0 
1741 -0.6695840418334922 -0.04148069275998989 -0.041635632963754166 140 143 148 0.58 65 0 66 0 67 0 
1742 -0.5294643944382786 -0.03744030538625398 -0.025187724443952675 145 137 138 0.64 65 0 66 0 67 0 68 0 
1743 -0.5968069607969209 -0.055104011067255765 -0.03583870196119965 117 106 100 0.29 65 0 66 0 67 0 
1744 -0.6940274910821853 -0.07456261588776975 -0.040057982757213395 113 108 112 0.35 65 0 66 0 68 0 
1745 -0.5585405736682583 -0.05704852796401644 -0.031127079302185612 137 137 141 0.38 65 0 66 0 68 0 
1746 -0.5564797840560274 -0.06354500098780808 -0.019817283751269565 154 150 148 0.6 65 0 66 0 68 0 
1747 -0.5718151791462893 -0.07888142556605832 -0.04068893770503168 155 153 150 0.11 65 0 66 0 67 0 
1748 0.3811321752803749 0.00844972278867634 -0.001940496775323819 133 120 123 0.66 65 0 66 0 68 0 
1749 -0.5714535199258528 -0.1071444094092604 -0.018733237745946152 125 123 122 0.66 65 0 66 0 67 0 68 0 
1750 -0.5743345027466185 -0.12326176853050141 -0.024458983562112735 161 162 162 0.6 65 0 66 0 67 0 68 0 
1751 -0.6365622651700276 -0.1400326367835848 -0.032086910475252806 132 132 132 0.29 65 0 66 0 67 0 68 0 
1752 -0.6619439953135016 -0.1659220805108642 -0.01770936984243754 145 143 149 0.82 65 0 66 0 67 0 68 0 
1753 -0.6114943841850988 -0.1672792452057219 -0.02968119921548973 152 150 144 0.68 65 0 66 0 67 0 68 0 
1754 -0.7680348853899899 -0.1963579408204168 -0.026338011112436943 105 95 93 0.74 65 0 66 0 67 0 68 0 
1755 -0.7125399991308434 -0.19422596961212552 -0.028928470339540713 145 144 149 0.37 65 0 66 0 67 0 68 0 
1756 -0.6899239199645011 -0.1935921790417861 -0.01988622123299666 165 170 176 0.87 65 0 66 0 68 0 
1757 -0.13493336402110345 -0.1470889658227169 -0.004328948358357287 151 140 132 0.43 65 0 66 0 67 0 
1758 -0.59466393436389 -0.19787242254861748 -0.028603074097136583 120 116 120 0.5 65 0 66 0 67 0 68 0 
1759 -0.6525738699520953 -0.20875002285512223 -0.023808514280159843 116 117 117 0.59 65 0 66 0 67 0 68 0 
1760 -0.613772884794836 -0.20874410403076749 -0.02434785937571471 116 116 116 0.29 65 0 66 0 67 0 68 0 
1761 0.8669810808128247 -0.08097228116182853 0.04007065563278389 82 67 65 0.47 65 0 66 0 67 0 68 0 
