# 3D point list with one line of data per point:
#   POINT3D_ID, X, Y, Z, R, G, B, ERROR, TRACK[] as (IMAGE_ID, POINT2D_IDX)
# Number of points: 460, mean track length: 4.64
866 -1.2703390100302607 0.17415267189733663 -0.2748517902276778 117 97 95 0.29 29 0 33 0 35 0 
867 -1.187060110154945 0.09148436538959737 -0.32347940008804843 70 88 93 0.44 29 0 31 0 33 0 35 0 37 0 38 0 
868 -0.9779730561202515 0.10676399530985192 -0.27874673683192 67 59 65 0.28 29 0 33 0 35 0 36 0 37 0 
869 -1.058091384190728 0.08377925589737478 -0.31583923761617105 144 166 182 0.28 29 0 31 0 33 0 35 0 38 0 
870 -1.1198984143107058 0.09500840579532666 -0.31163888384867666 151 171 183 0.42 29 0 31 0 33 0 35 0 38 0 
871 -0.7690177423420737 -0.5660377605183009 0.2231067243280226 95 87 89 0.5 29 0 33 0 34 0 35 0 36 0 37 0 38 0 
872 -0.27218218227812163 -0.5833508107198855 0.20752114809796807 42 28 20 0.64 28 0 29 0 30 0 31 0 
873 -1.136238330416479 -0.5614093746447798 0.22284389514674674 148 174 190 0.42 29 0 33 0 35 0 36 0 37 0 38 0 
874 0.029993452968400502 -0.09277804006363011 -0.3306332011348997 136 146 153 0.48 29 0 33 0 34 0 36 0 
875 -1.3856932138222358 0.16782989366193757 -0.24353763146519258 118 103 101 0.78 29 0 31 0 33 0 35 0 37 0 38 0 
876 -1.4444363702921634 0.1729035376887823 -0.24939679418033278 71 47 44 0.53 29 0 31 0 33 0 35 0 37 0 38 0 
877 1.2452170166421843 -0.7213764304133763 0.12813270376419872 105 65 51 0.51 29 0 31 0 33 0 
878 -0.6438316994571741 0.049910736902817554 -0.2470401824292463 71 64 64 0.96 29 0 31 0 32 0 33 0 34 0 36 0 37 0 
879 1.1921107716827517 -0.21299384524881151 -0.31617996934874804 62 60 53 0.37 29 0 30 0 31 0 
880 -0.9847964259515449 0.07592078293330395 -0.2647320158225337 111 111 117 0.68 29 0 31 0 33 0 35 0 36 0 38 0 
881 -1.0599679333023355 0.05993623821843086 -0.29023823403076043 163 174 186 0.24 29 0 31 0 33 0 35 0 37 0 38 0 
882 -1.1243004325985757 0.0665229021500281 -0.29176654215697384 169 173 187 0.4 29 0 31 0 33 0 35 0 37 0 38 0 
883 -1.1846001215976798 0.07783065628991537 -0.28654053113915035 159 165 170 0.31 29 0 31 0 33 0 35 0 37 0 38 0 
884 -0.9619473422526803 -0.5190634460469745 0.21163364737083878 132 126 120 0.57 29 0 33 0 34 0 35 0 36 0 37 0 38 0 
885 -1.0097128370807702 -0.5155905323094712 0.2151720988978979 85 89 96 0.38 29 0 33 0 34 0 35 0 37 0 38 0 
886 -1.2002263492499652 -0.5373676146204098 0.18954734794965866 181 200 209 0.69 29 0 33 0 35 0 36 0 
887 -1.3740800005150884 0.13443722663905688 -0.24033368265229949 53 58 62 0.52 29 0 31 0 33 0 35 0 37 0 38 0 
888 -1.1946217341657794 0.11896365121743513 -0.23599752185737055 37 37 39 0.64 29 0 31 0 33 0 35 0 
889 0.7828116456758203 -0.1722698379207816 -0.2913695801091363 72 60 52 0.69 29 0 30 0 31 0 33 0 35 0 36 0 37 0 
890 -0.8545708412762476 0.05952144091890099 -0.24071731374313954 134 132 135 0.67 29 0 31 0 35 0 
891 -1.2913848871283427 0.11718414668111687 -0.2396067164846214 85 71 71 0.24 29 0 33 0 35 0 37 0 
892 -1.0510073119219934 -0.48797771254336675 0.1884730732223373 114 117 132 0.55 29 0 33 0 35 0 37 0 
893 -1.1287062402212775 0.041433193032369864 -0.2738038384864805 155 168 181 0.55 29 0 33 0 35 0 37 0 38 0 
894 -0.04016020261540976 -0.12562928600586143 -0.2971788919426922 130 140 148 0.51 29 0 33 0 34 0 
895 -1.1992393995656827 0.09057713300802639 -0.21800150061462176 81 66 63 0.49 29 0 31 0 33 0 37 0 38 0 
896 0.026231541393226365 -0.6259281438117534 0.08801316083745514 76 73 69 1.14 29 0 30 0 31 0 35 0 
897 -0.7584985843402658 -0.4878625362004847 0.15982253128466783 97 90 86 0.65 29 0 33 0 34 0 35 0 36 0 38 0 
898 -0.8178047678282376 -0.5013514653851542 0.15308535743209173 90 94 96 0.79 29 0 33 0 36 0 
899 -0.9466007312797879 -0.4595417689771198 0.16815473045598905 95 93 96 0.4 29 0 33 0 35 0 36 0 37 0 38 0 
900 -1.4574956240959478 0.1001789265156251 -0.19860926347092467 50 46 41 0.48 29 0 31 0 33 0 35 0 37 0 
901 -1.3998812373623588 0.10595807096056398 -0.18951021362439757 146 136 132 0.83 29 0 31 0 33 0 35 0 
902 -0.16606475742980442 -0.5435261566436923 0.10924973785479353 24 15 11 0.5 29 0 30 0 33 0 
903 -0.6737765489882722 -0.5282683414128543 0.1074949420648238 109 118 121 0.75 29 0 33 0 34 0 38 0 
904 -0.98934204122526 0.022069607526300994 -0.21625169903135355 80 75 82 0.57 29 0 31 0 33 0 36 0 37 0 38 0 
905 -1.0660490620942873 0.006506004180346081 -0.24214512498709007 167 181 199 0.39 29 0 31 0 33 0 35 0 36 0 37 0 
906 -1.1316412357579462 0.012640406063206822 -0.2437064918442413 167 181 197 0.37 29 0 31 0 33 0 35 0 37 0 38 0 
907 -1.183801289435237 0.03991663448263777 -0.21937178420396364 149 160 170 0.64 29 0 31 0 33 0 37 0 
908 0.8855226090588055 -0.20614074855854003 0.3630464276609072 150 142 134 0.29 29 0 30 0 31 0 
909 -0.2045095727712129 -0.5230480459029692 0.11487942070223756 61 50 43 0.82 29 0 30 0 31 0 33 0 38 0 
910 0.027830939167805102 -0.5936437733305737 0.06159821302478985 68 75 75 0.64 29 0 30 0 31 0 35 0 36 0 
911 -1.2570300742826293 -0.4057242208426762 0.16181169022398512 86 70 68 0.56 29 0 33 0 35 0 37 0 
912 -1.1239862072148483 -0.45431478627028465 0.12107375528156006 136 158 172 0.74 29 0 33 0 36 0 37 0 38 0 
913 0.8123018127271258 -0.14018947271316173 0.3893031048166443 132 137 140 0.95 29 0 31 0 33 0 36 0 
914 0.08855359362228582 -0.5343586793637003 0.09098554383673096 59 46 38 0.37 29 0 30 0 31 0 34 0 35 0 
915 0.06004447857922818 -0.531627532052567 0.09120544272756781 58 49 43 0.55 29 0 30 0 31 0 34 0 35 0 
916 -1.18305782791798 -0.439983304046012 0.1258733837300926 159 179 189 0.43 29 0 33 0 35 0 36 0 37 0 38 0 
917 -1.0701931237858575 -0.02097217512909577 -0.21513094096233332 158 180 193 0.41 29 0 31 0 35 0 36 0 
918 -1.1343037446788022 -0.013610934514927675 -0.21423968090200962 156 177 188 0.23 29 0 31 0 33 0 37 0 38 0 
919 -1.3833374536361738 0.055752299524169824 -0.17122203967436667 105 73 69 0.5 29 0 31 0 33 0 35 0 37 0 38 0 
920 -0.766201276465744 -0.42635678675297406 0.12309393671016322 63 68 75 0.45 29 0 33 0 34 0 35 0 36 0 37 0 38 0 
921 -0.13688725384258787 -0.6088708876360084 0.009235830784528054 82 85 90 1.03 28 0 29 0 30 0 31 0 33 0 
922 -0.8182151415846057 -0.434826725003594 0.1156450290987383 112 98 95 0.47 29 0 33 0 34 0 36 0 37 0 38 0 
923 -1.4590088224547777 0.06164714928251713 -0.1630383962186822 93 75 62 0.34 29 0 31 0 33 0 38 0 
924 0.6416665712989 -0.22535159402017316 -0.22817296725707692 37 28 30 0.84 27 0 29 0 30 0 31 0 32 0 35 0 
925 -0.9296177891223603 -0.00945315923477641 -0.17878470972295735 118 99 93 0.26 29 0 31 0 35 0 36 0 
926 -3.4055106953653693 -0.8007718580570821 -1.2915045064139434 24 26 35 0.73 29 0 31 0 33 0 
927 -1.2089612190691976 0.026851014999638878 -0.17230849772114754 98 95 89 0.58 29 0 33 0 35 0 37 0 38 0 
928 -1.1824639094245788 -0.41740190799761007 0.0958738482837066 174 198 209 0.41 29 0 31 0 33 0 35 0 36 0 37 0 
929 -0.6918549354605106 -0.4614069151270526 0.07242473006524952 107 126 135 0.52 29 0 33 0 35 0 36 0 37 0 
930 0.6396560445415557 -0.233989503574177 -0.21832859520577375 39 33 31 0.68 29 0 31 0 33 0 35 0 
931 -0.6329284868139785 -0.471550287127695 0.06665086372758922 156 174 187 1.11 29 0 33 0 35 0 36 0 38 0 
932 -1.0600313390290768 -0.40677828146751266 0.08242433856333664 152 164 176 0.82 29 0 31 0 33 0 36 0 38 0 
933 -3.2784912612792905 -0.7793267318143052 -1.1903123606307815 72 100 107 0.12 29 0 31 0 33 0 
934 0.09953472796043708 -0.16572752553836467 -0.19869812695829525 53 47 46 0.63 29 0 31 0 33 0 36 0 37 0 
935 -1.116405601356446 -0.3994098703183125 0.08160656214827333 181 195 206 0.52 29 0 31 0 33 0 35 0 36 0 37 0 38 0 
936 -1.1803497455508756 -0.39625992369891316 0.07797741624235555 178 192 202 0.52 29 0 31 0 33 0 35 0 36 0 37 0 
937 -0.7059196343476979 -0.4272646360619613 0.07055270516474155 58 51 57 0.75 29 0 33 0 34 0 35 0 36 0 37 0 38 0 
938 -1.2381889386560414 -0.38750836318621346 0.0820442296238667 119 146 153 0.34 29 0 33 0 35 0 37 0 38 0 
939 -0.6571191834050377 -0.063033784955416 -0.15832695878946312 54 46 44 0.92 29 0 30 0 31 0 32 0 33 0 35 0 
940 -0.9988467288250009 -0.037345888724375276 -0.17032622845636525 88 94 107 0.32 29 0 31 0 33 0 36 0 37 0 
941 -1.0720515167779496 -0.047863183948405275 -0.19067807861483554 159 171 183 0.45 29 0 31 0 33 0 35 0 36 0 37 0 38 0 
942 -1.1384431194196263 -0.043344359112719166 -0.19301308244625692 158 173 186 0.5 29 0 31 0 33 0 35 0 37 0 
943 -1.1978119793113917 -0.029417847444342504 -0.1866489559895802 144 152 160 0.36 29 0 31 0 33 0 35 0 37 0 38 0 
944 -3.3131472771846173 -0.7578129284144083 -1.1707003247063241 88 90 105 0.47 29 0 31 0 33 0 
945 -0.11916376477991625 -0.1832492361611857 -0.21392500445096274 48 43 44 1.75 29 0 30 0 31 0 33 0 34 0 
946 -0.08332077498542295 -0.2069771629742287 -0.23293508711594935 90 95 99 1.05 29 0 30 0 31 0 32 0 33 0 34 0 35 0 
947 -1.2529317482184748 -0.35482741306425386 0.07966212400742345 85 64 70 0.65 29 0 33 0 35 0 37 0 38 0 
948 -0.9615063099859855 -0.35372159933641995 0.08663836789772816 96 86 84 0.31 29 0 33 0 37 0 38 0 
949 -1.1852992707269794 -0.3446455026620433 0.08640217017137419 161 160 159 0.37 29 0 33 0 35 0 
950 1.280140517724508 -0.32235496934489277 -0.20423365695265783 86 73 58 0.73 29 0 30 0 35 0 
951 -0.715695907633219 -0.37215144694355645 0.07064162100644411 58 50 45 0.35 29 0 33 0 34 0 35 0 36 0 37 0 38 0 
952 0.08752995010079676 -0.21537623591599742 -0.20072237001491589 84 85 93 0.83 29 0 31 0 33 0 34 0 36 0 37 0 
953 -0.9977703176516268 -0.056238488672382514 -0.15102703692994524 100 92 95 0.39 29 0 31 0 33 0 35 0 36 0 37 0 
954 -1.0129256688688162 -0.32908270112315907 0.07979255318834622 105 82 69 0.59 29 0 31 0 33 0 35 0 36 0 
955 0.006327689913685264 0.9536550712744786 0.3135457521332491 98 90 89 0.38 29 0 31 0 34 0 
956 -0.7051487813012189 -0.3537390531094631 0.04826790142240356 115 101 93 0.45 29 0 33 0 34 0 35 0 36 0 37 0 38 0 
957 0.8611486589633592 0.10742061731050156 0.2040436019779267 163 170 174 0.21 29 0 33 0 35 0 
958 -1.1416303807537944 -0.0728969044231993 -0.16934544020915554 141 166 181 0.21 29 0 33 0 35 0 37 0 
959 -1.2056530509561452 -0.08261171947848756 -0.18598603292102145 58 92 111 1.38 29 0 33 0 38 0 
960 -1.4674602457919161 0.004304549499604737 -0.1247552639838655 91 74 72 0.52 29 0 31 0 33 0 35 0 37 0 38 0 
961 -3.2960535992924616 -0.8584942518198037 -1.165707654941631 33 35 39 0.2 29 0 31 0 33 0 
962 -1.0280380024509286 -0.2982454506708828 0.05438914623097435 103 96 87 0.52 29 0 31 0 33 0 36 0 37 0 
963 -4.464237709260883 -1.8597736612356806 -2.2416880167484834 70 95 69 0.31 29 0 31 0 33 0 
964 -3.3314701723437983 -0.8138302120736443 -1.113975679545649 28 38 52 0.3 29 0 31 0 33 0 
965 1.3365827959419068 -0.03708129037497404 0.10654952478866098 121 120 123 0.4 29 0 30 0 32 0 
966 -1.0777115970696827 -0.08283311560507112 -0.1637134386335669 160 180 196 0.75 29 0 31 0 35 0 
967 -0.8599356629383552 -0.3123802777437912 0.045344627964750805 123 111 108 0.77 29 0 33 0 34 0 36 0 37 0 38 0 
968 -11.306923814037336 -6.927204880793504 -5.698431051090656 151 171 162 1.29 29 0 31 0 33 0 
969 0.011693275209944898 -0.23432867983822914 -0.19912597839472512 136 148 157 0.68 29 0 30 0 31 0 32 0 34 0 35 0 36 0 
970 -1.3209545552554427 -0.025315583402408137 -0.12064711257108607 102 91 91 0.69 29 0 31 0 33 0 35 0 37 0 38 0 
971 -0.8090065294505784 -0.3083714976625089 0.031110741051355695 71 74 82 0.64 29 0 33 0 35 0 36 0 38 0 
972 0.12745489425567402 0.9308238904800309 0.3083574007863653 98 75 73 0.45 29 0 30 0 31 0 
973 -1.2182228924684038 -0.043332426863198714 -0.12094272576491338 97 93 89 0.46 29 0 33 0 35 0 38 0 
974 0.0909389882259968 -0.220306974738273 -0.14849131742771526 87 79 80 0.72 29 0 31 0 32 0 33 0 38 0 
975 -1.4686212479328224 -0.016176925663433206 -0.10158762970918167 94 69 55 0.49 29 0 33 0 35 0 38 0 
976 0.6087198239183079 -0.30222759026030244 -0.19006593373801983 24 22 23 0.59 29 0 31 0 33 0 34 0 
977 -1.2073509629504142 -0.0878889882105992 -0.14752198640098846 116 128 139 0.38 29 0 31 0 33 0 35 0 37 0 38 0 
978 -1.2547996677882616 -0.255063712298018 0.04641578256423684 126 120 115 1.6 29 0 31 0 33 0 37 0 
979 -0.9571380106013287 -0.27774114553400553 0.027459774223566824 142 136 129 0.53 29 0 33 0 35 0 
980 -0.8945287303799125 -0.27673155048189557 0.021634141643829707 135 127 124 0.65 29 0 33 0 34 0 35 0 36 0 37 0 38 0 
981 -1.0031485885170863 -0.26246557641147816 0.0308520017866305 127 109 107 0.73 29 0 33 0 35 0 
982 -1.0828408785164243 -0.1084323484826808 -0.14984184267886247 145 161 175 0.46 29 0 31 0 33 0 35 0 36 0 37 0 38 0 
983 -1.331707201549685 -0.0558273931669796 -0.09466538036309591 86 84 90 0.67 29 0 31 0 33 0 35 0 37 0 
984 -0.24144677476108733 -0.16782685958559473 -0.10166483056181908 120 114 108 0.54 28 0 29 0 30 0 31 0 
985 -0.8349720172870287 -0.1066729502371519 -0.08466557308626654 103 93 95 1.27 29 0 31 0 32 0 33 0 34 0 36 0 37 0 
986 -1.1496495144202132 -0.12440161844486625 -0.13193473679029677 128 151 168 0.38 29 0 31 0 33 0 35 0 
987 -0.1628347749856761 0.15450022125050267 0.22618241465120514 47 39 38 1.01 29 0 33 0 37 0 
988 -1.086532602571362 -0.13616799600237173 -0.13204891514746397 117 137 152 0.33 29 0 33 0 35 0 38 0 
989 -0.8939107583257153 -0.2535088621230054 -0.007225708910991613 83 73 72 0.87 29 0 31 0 33 0 34 0 35 0 36 0 37 0 38 0 
990 -1.1481833622872906 -0.21554987463462427 0.0024589177633934645 65 59 67 0.35 29 0 31 0 33 0 35 0 37 0 38 0 
991 -1.2739089128276238 -0.20021929687192236 0.0020926690675490134 88 96 101 0.62 29 0 31 0 33 0 35 0 37 0 38 0 
992 -1.397341289263672 -0.07625375396062761 -0.08562609789054154 124 99 98 0.46 29 0 31 0 33 0 
993 0.648196905708069 -0.42762649918316464 -0.08830682907069376 78 63 53 0.26 29 0 31 0 33 0 
994 -0.6877722864496036 -0.25328571524056287 -0.027379507884503163 124 117 110 0.94 29 0 33 0 34 0 35 0 36 0 37 0 38 0 
995 0.4072636665881617 -0.3963449234925535 -0.08578646241843424 74 60 50 0.51 28 0 29 0 30 0 31 0 
996 -1.0555772035165976 -0.2010420776693232 -0.02037459376837547 155 144 133 0.49 29 0 33 0 35 0 36 0 37 0 38 0 
997 0.0067622512575887805 -0.2931373729777918 -0.1603737312184894 117 127 130 0.76 29 0 30 0 31 0 35 0 
998 -1.086706586177723 -0.18731682816082917 -0.016381973148247075 151 136 122 0.58 29 0 31 0 33 0 35 0 36 0 37 0 38 0 
999 -1.1840393950917625 -0.177589969264692 -0.014693956118850715 151 133 121 0.35 29 0 31 0 33 0 35 0 37 0 38 0 
1000 -1.2836630598262102 -0.16709687624294178 -0.01248813636285906 88 85 90 0.52 29 0 31 0 33 0 37 0 38 0 
1001 -1.2888156376459767 -0.08617676902657645 -0.06011650754959419 95 82 83 0.57 29 0 31 0 33 0 35 0 37 0 38 0 
1002 -0.6950687615549528 -0.22628233677338247 -0.04404743924928134 120 92 89 0.56 27 0 28 0 29 0 30 0 31 0 32 0 33 0 34 0 35 0 37 0 38 0 
1003 -1.0906272357692768 -0.16542677345765416 -0.10778271553576435 63 57 56 0.66 29 0 31 0 33 0 35 0 36 0 
1004 -1.1582232932654082 -0.16130004397037528 -0.11103352824288526 57 52 52 0.31 29 0 31 0 33 0 35 0 37 0 
1005 0.6028073057117622 -0.35168259692732023 -0.14685554027778824 32 24 24 0.31 29 0 31 0 33 0 
1006 -1.2136863411792342 -0.13818980317084723 -0.09901631761634444 43 42 43 0.42 29 0 31 0 33 0 35 0 37 0 38 0 
1007 -1.264566994077022 -0.11020085455404854 -0.07605070095458222 119 110 111 0.8 29 0 31 0 33 0 35 0 37 0 38 0 
1008 -1.2515915656093115 -0.16911449931290967 -0.03103062599140094 147 124 125 0.55 29 0 31 0 33 0 35 0 
1009 -1.3666802500606117 -0.15171478865589916 -0.029435533030949923 96 96 99 0.34 29 0 33 0 37 0 38 0 
1010 0.23903470909642446 0.06964275497364925 0.21926573258407023 122 126 133 0.55 29 0 30 0 35 0 
1011 -0.8253122234333301 -0.1582478800899313 -0.07532453808122408 111 109 107 0.26 29 0 33 0 34 0 37 0 
1012 -1.085624474553125 -0.15965110083550216 -0.027638432567383853 155 142 130 0.56 29 0 31 0 33 0 35 0 36 0 37 0 
1013 0.032617914090465605 -0.30487876729349794 -0.13463883944694688 44 56 55 0.67 29 0 33 0 35 0 
1014 -1.227388778326091 -0.1285216185996923 -0.05540155476510089 71 62 60 0.58 29 0 31 0 33 0 35 0 37 0 38 0 
1015 -1.3069942648638502 -0.12721741463104674 -0.04637325962270267 102 90 94 0.3 29 0 31 0 33 0 35 0 
1016 -0.13123388575911554 -0.30883686170351765 -0.13095038784352697 32 23 21 0.83 29 0 33 0 34 0 35 0 
1017 -0.1650164839996559 0.6795479642828884 0.0454651757419865 74 90 98 0.65 29 0 33 0 34 0 
1018 0.6577406960959924 0.49815757771281677 -0.011623751829666462 72 61 63 0.39 29 0 30 0 33 0 
1019 -0.30459586371921943 0.7032031344766904 0.05026757932694126 55 69 73 0.79 29 0 31 0 33 0 34 0 
1020 0.47179811298334634 0.5484220776382766 0.004594234080909643 96 90 89 0.54 29 0 30 0 31 0 
1021 -0.24239985034547518 0.6938631130010503 0.06353209640693114 57 62 67 1.23 28 0 29 0 30 0 31 0 32 0 33 0 34 0 35 0 36 0 
1022 -0.47946792785300096 0.779033502921951 0.15391044505748452 40 59 41 0.26 29 0 33 0 34 0 
1023 0.31917966009052834 0.8681678337106228 0.2662887203254868 96 83 82 0.44 29 0 30 0 31 0 
1024 -0.9826329135604102 -0.19588179005463024 -0.010892908217943753 139 126 116 0.56 29 0 33 0 37 0 38 0 
1025 -0.7753341140147474 0.7990427440024156 0.10902786065842585 45 55 31 0.86 29 0 31 0 33 0 35 0 
1026 0.6332041458295606 -0.42594353459044143 -0.09343297904170988 69 53 45 0.53 29 0 33 0 35 0 
1027 0.027528538659076618 0.606007557759375 0.03204806813514449 77 70 74 0.69 29 0 31 0 33 0 
1028 1.0581024313670253 0.4498817339588118 0.08823737276338794 45 38 41 0.67 29 0 30 0 32 0 
1029 0.36953268843348164 0.4924973141117772 0.0021891904821785824 90 90 93 0.19 29 0 31 0 32 0 
1030 -0.7516996081404124 0.8491071418531358 0.11280601851004002 81 103 69 0.46 29 0 33 0 35 0 
1031 0.28450273677755733 0.8972673395612422 0.29123753953751874 94 82 81 0.42 29 0 31 0 33 0 
1032 0.08590936322862108 -0.22675628907044265 -0.18283120216347515 101 104 116 0.56 29 0 30 0 34 0 
1033 -1.15574673482218 -0.28919447173649926 0.06376122881425339 144 130 125 0.29 29 0 33 0 36 0 37 0 38 0 
1034 -1.133342837870828 0.6596707353368695 -0.016824463829659186 88 81 90 0.61 29 0 31 0 33 0 38 0 
1035 -0.059854469919915276 0.9198042816342541 0.2665501381955152 114 73 77 0.61 29 0 30 0 31 0 32 0 
1036 -0.9348598994023971 0.8826808145557915 0.08979400295782769 78 72 73 0.47 29 0 31 0 33 0 35 0 
1037 -1.1568479902939457 -0.32053841875158473 0.07550132597827708 39 28 25 0.59 29 0 31 0 33 0 35 0 36 0 37 0 
1038 0.7290541179909233 0.0520718304368738 -0.46240589483685646 124 102 82 0.47 28 0 29 0 30 0 31 0 
1039 0.061588560277031856 -0.4673541188780159 0.03308792460099286 70 51 45 0.31 29 0 30 0 35 0 
1040 -1.2657929070639335 0.6410084305525806 -0.010748658083422291 128 127 140 0.51 29 0 31 0 35 0 
1041 0.7548206752074565 0.28221510934730343 -0.07362469634512281 46 32 29 0.8 29 0 31 0 34 0 
1042 -1.3590327569033431 0.3610245452532551 -0.39583755820941013 78 71 73 0.32 29 0 33 0 37 0 38 0 
1043 0.5643346274723495 -0.5658474110334797 0.02872552421751895 31 22 17 0.68 27 0 28 0 29 0 30 0 31 0 32 0 33 0 
1044 -0.19043734312147192 -0.47820208817132576 0.08272006764338014 41 37 38 0.36 29 0 30 0 32 0 33 0 
1045 -0.9747450261661552 -0.39558248663779794 0.13064399816898142 89 85 90 0.8 29 0 33 0 34 0 35 0 36 0 37 0 
1046 -1.4101541893088891 0.07258869095623821 -0.16102130668158476 124 101 98 0.52 29 0 31 0 35 0 
1047 -1.34377851392118 0.04790681087470716 -0.17401193981954244 103 64 58 0.34 29 0 31 0 33 0 35 0 37 0 
1048 -0.020240685377993284 0.11967295659420563 -0.4058217452578644 97 77 65 0.43 29 0 31 0 32 0 33 0 
1049 -0.9170081365761107 -0.0046253747954270175 -0.21401158895862382 155 151 150 0.97 29 0 31 0 33 0 
1050 0.7305590356195857 -0.22590659636196253 -0.2510840845274577 133 120 104 0.09 29 0 31 0 33 0 
1051 -0.841045349187314 -0.4673016942341889 0.15336701558717702 100 101 101 0.34 29 0 33 0 34 0 35 0 36 0 37 0 
1052 -1.2705521826907709 0.09746747884014273 -0.21262200196370606 129 113 107 0.35 29 0 33 0 35 0 38 0 
1053 -1.2648396411421994 -0.4776662890066547 0.18225481394209953 150 139 142 0.49 29 0 33 0 35 0 37 0 38 0 
1054 -0.1534306983064313 -0.8048893085650657 0.3247203470603609 34 25 19 0.51 29 0 30 0 31 0 34 0 
1055 -0.9461272648474226 -0.7242343254405124 0.3644370562022873 94 79 75 0.45 29 0 33 0 34 0 35 0 36 0 37 0 38 0 
1056 -0.06847868184304962 -0.09056019110312447 -0.32296626434191755 94 97 100 0.7 29 0 33 0 35 0 
1057 -1.3418403362750426 -0.673863671985193 0.36849494246396486 131 126 121 0.24 29 0 33 0 37 0 38 0 
1058 0.3294503240813542 0.7521273716096594 0.16792731560255125 14 11 10 1.49 29 0 31 0 34 0 
1059 0.03375890044629953 -0.6718345279761851 0.14518649521161964 53 46 41 0.81 29 0 30 0 31 0 35 0 36 0 
1060 -1.3494210954454173 0.15587006963176409 -0.25319990371794665 131 102 99 0.54 29 0 33 0 35 0 
1061 1.0617180230682859 0.6265461579758521 0.1363162467162501 84 61 56 0.49 29 0 30 0 32 0 34 0 
1062 -0.712019607131402 -0.6106019058823094 0.1847827061877655 136 141 147 0.45 29 0 33 0 34 0 
1063 -1.348127052159332 -0.5012180500761139 0.2548468775312184 132 127 126 0.53 29 0 33 0 35 0 37 0 
1064 -0.9225380821034705 0.16529103337724704 -0.3121934656358696 100 92 90 0.64 29 0 31 0 33 0 35 0 36 0 37 0 38 0 
1065 -0.08223070244556346 -0.7627224180550094 0.24218259794065056 67 56 46 0.29 29 0 30 0 31 0 
1066 0.681258385506506 -0.06978109266308219 -0.332739021511679 89 87 86 0.14 29 0 31 0 35 0 
1067 -10.571544365637157 -5.89816022967043 -6.061426846511763 93 116 76 0.77 29 0 31 0 33 0 
1068 -1.1675798890876166 -0.18252614705291148 -0.10940242922899479 26 18 19 0.42 29 0 31 0 35 0 
1069 -0.26341564633209 0.7121596758513874 0.08026113398564783 56 72 76 1.48 29 0 30 0 32 0 
1070 -0.8556366941940927 0.8566187403666959 0.11534793614373873 110 105 60 0.13 29 0 33 0 35 0 
1071 -1.1600726907934926 -0.20220114980123172 -0.03534186592844224 149 132 124 0.55 29 0 33 0 37 0 
1072 0.5923887815217376 0.7957028596800774 0.21424441612607625 86 74 71 0.65 29 0 30 0 31 0 33 0 
1073 -0.45495077091996705 0.6205768959787877 -0.05844357662643762 25 24 24 1.19 29 0 31 0 32 0 33 0 34 0 
1074 -0.178092878737928 0.06987705015190282 0.28737926216958487 109 106 102 0.81 29 0 30 0 31 0 33 0 34 0 35 0 
1075 -0.805082192869156 -0.28027436248253723 -0.007041499383794059 126 122 122 0.51 29 0 33 0 34 0 35 0 36 0 37 0 38 0 
1076 0.23061620187497048 -0.007324914141989325 0.2801024407355729 102 106 113 0.6 29 0 30 0 31 0 33 0 35 0 
1077 0.118365911867996 0.028709949761521747 -0.32421597407724934 85 86 84 0.92 29 0 30 0 32 0 34 0 
1078 1.243704348228559 -0.39145636315830257 -0.19715697526845222 89 75 65 0.35 29 0 31 0 33 0 
1079 -0.6901217153332184 -0.3014935901442431 0.005213383503733349 130 118 114 0.41 29 0 33 0 34 0 35 0 
1080 -0.8605920686662765 -0.27333877994574923 0.015390737683751321 101 90 89 0.59 29 0 33 0 34 0 36 0 37 0 38 0 
1081 -0.978128428376583 -0.7149505068421756 0.34917246321249096 124 106 103 0.42 29 0 33 0 34 0 
1082 0.8887051360768966 -0.06876027935112772 0.3106961594776184 145 121 104 0.87 29 0 30 0 31 0 35 0 
1083 0.5730430502751062 -0.638974775729834 0.11743311435873294 32 27 23 1.04 29 0 30 0 31 0 32 0 33 0 
1084 0.09037420272823832 0.736258802814065 0.07945405596145039 17 15 15 0.5 29 0 30 0 31 0 32 0 33 0 
1085 -1.2922501657481553 -0.2796027625376157 0.08342425254208186 92 90 92 1.05 29 0 31 0 33 0 35 0 37 0 
1086 -1.123681422230107 -0.31196661283602956 0.0849541410872563 37 29 28 0.34 29 0 33 0 35 0 36 0 
1087 -0.2407728021046267 -0.45452823727685293 0.18370249579406595 53 39 29 1.07 29 0 31 0 33 0 
1088 -1.0722361215360252 -0.36582560500512873 0.084773791815422 83 83 106 0.92 29 0 33 0 35 0 36 0 37 0 38 0 
1089 0.07499002672112218 0.17433224627191213 -0.3866837624205368 120 105 95 0.42 29 0 30 0 31 0 
1090 0.7574249366433472 -0.2247833072293432 -0.2473695443460766 112 96 82 0.41 29 0 31 0 33 0 37 0 
1091 0.1452003157883765 -0.10495525692567215 -0.1868225335014282 114 104 92 1.58 29 0 30 0 31 0 32 0 
1092 -0.9965916175805323 -0.42692789135473885 0.14189110556558993 102 91 89 1.1 29 0 33 0 35 0 38 0 
1093 -1.1065312751579612 -0.20266434264017869 -0.0890022514874369 125 99 94 0.98 29 0 31 0 33 0 
1094 -0.8502240497045617 -0.4176494856024193 0.12192536621272432 70 77 82 0.36 29 0 33 0 34 0 35 0 37 0 38 0 
1095 0.10871866919989909 0.9385974769733122 0.31243374549757796 105 80 79 0.53 30 0 31 0 32 0 33 0 34 0 
1096 0.4885487250794447 0.8991252831630522 0.32474816662867567 103 76 74 0.68 30 0 31 0 33 0 34 0 
1097 0.3692388727104643 0.9066465889397438 0.3151906101602898 116 86 84 0.56 30 0 31 0 32 0 33 0 
1098 0.09211488629574913 0.8518820772747907 0.20894530287838664 95 69 68 0.87 30 0 31 0 33 0 34 0 35 0 
1099 -0.12478218018947107 0.8492587835865507 0.15734421788509978 108 72 71 0.17 30 0 31 0 35 0 
1100 -0.03651093416814277 0.828729361117348 0.1647232682465679 78 57 54 0.46 30 0 32 0 33 0 34 0 35 0 
1101 0.24232904009432044 0.783248997929051 0.15650629632442936 96 76 73 0.54 30 0 31 0 32 0 33 0 
1102 -0.0023423910018083305 0.7884073166311493 0.12343616366347121 113 101 95 1.1 30 0 31 0 32 0 
1103 1.3571570913500384 0.580266983257696 0.1620547685790671 21 29 40 0.3 30 0 32 0 34 0 
1104 1.339195478492628 0.4931927981392793 0.04875253842236715 39 42 50 0.27 30 0 32 0 34 0 
1105 0.8169613729778678 0.6238695758554228 0.1933314814813173 19 25 30 0.22 30 0 31 0 34 0 
1106 0.5136538928783856 0.6202675873939999 0.24401719310758707 64 61 66 0.29 30 0 31 0 32 0 33 0 
1107 2.3377125766188334 0.16877137291197342 -0.10698602062688922 64 58 57 0.25 30 0 32 0 34 0 
1108 2.2613260161347286 0.1756620358655624 -0.1089510021185236 62 55 56 0.36 30 0 32 0 34 0 
1109 1.9194945070107086 0.3428188747746087 0.07488143849079587 47 58 48 0.3 30 0 32 0 34 0 
1110 2.5945061165274703 0.1349637007101956 -0.10883613898735822 88 82 88 0.5 30 0 32 0 34 0 
1111 2.553963643879883 0.12262011024839858 -0.13376131049179507 83 67 68 0.31 30 0 32 0 34 0 
1112 2.4286146693602593 0.15543943698125628 -0.10808601923851713 73 62 61 0.28 30 0 32 0 34 0 
1113 0.49875754819416507 0.5479034893983105 0.2114057641987327 51 49 51 0.85 30 0 31 0 33 0 34 0 35 0 
1114 0.21592081834378934 0.3720919938970836 -0.060159267168430786 52 43 41 0.56 30 0 31 0 32 0 33 0 
1115 -0.4469721040980398 0.44013716456162455 -0.11958060462773523 44 49 55 0.53 30 0 32 0 33 0 
1116 2.9820361923654986 -0.31243468104019434 -0.46421981861904993 103 90 93 1.38 30 0 32 0 34 0 
1117 -0.28496078772375655 0.4815883201650316 0.014427083995820156 59 52 53 0.47 30 0 31 0 36 0 
1118 3.534717375591426 -0.6129082977585043 -0.5319454917723407 42 54 31 0.45 30 0 32 0 34 0 
1119 0.20257598640423438 -0.0009430273128996913 -0.3486912883632426 59 55 55 0.39 30 0 32 0 33 0 34 0 35 0 36 0 37 0 
1120 0.2634785388236168 0.2808356989106783 0.052971963254033194 114 118 124 0.71 30 0 31 0 35 0 36 0 
1121 -0.13839975438222063 0.35201417929210377 0.08529402820736365 62 62 61 0.72 30 0 31 0 34 0 35 0 36 0 
1122 -0.5077709332705101 0.030345441323239353 -0.34846702941853946 130 152 165 0.34 30 0 31 0 32 0 33 0 34 0 35 0 36 0 
1123 2.5211923623278674 -0.48052936238063293 -0.29863029749381076 129 93 69 0.38 30 0 32 0 34 0 
1124 0.16340362454568297 -0.07667968015888815 -0.28718740730342207 67 62 59 0.46 30 0 31 0 32 0 33 0 34 0 35 0 36 0 37 0 38 0 
1125 1.4634031156985545 -0.272375632644272 -0.21793164770361395 176 171 171 1.32 30 0 32 0 34 0 
1126 0.15636123426872486 -0.10266015277388241 -0.2650343035530415 126 117 108 0.72 30 0 31 0 32 0 34 0 35 0 
1127 -0.03724253157961499 -0.11468579126351014 -0.29706420642459763 113 122 127 0.15 30 0 31 0 35 0 
1128 -0.5411955799961841 -0.03972415068867041 -0.30130888573691006 75 99 107 0.44 30 0 31 0 32 0 33 0 34 0 35 0 36 0 37 0 38 0 
1129 -0.004204244931116263 -0.1823664293716098 -0.2735841129815688 51 74 82 0.26 30 0 32 0 33 0 34 0 35 0 
1130 -0.5854797304331151 -0.06817496314111815 -0.2585676113215807 131 142 158 0.47 30 0 31 0 33 0 34 0 35 0 36 0 
1131 -0.5219148328434534 -0.07396029126587722 -0.25541376814548034 149 163 180 0.36 30 0 31 0 32 0 33 0 34 0 35 0 36 0 37 0 38 0 
1132 -0.5225834433051276 -0.09151796394588768 -0.23708901294178442 123 152 169 0.39 30 0 32 0 34 0 
1133 4.354714998787956 -2.124143660890168 -1.1945597474482383 102 106 100 0.82 30 0 32 0 34 0 
1134 0.21657511676920457 -0.23177529527007346 -0.1739951257486907 74 63 57 0.66 30 0 31 0 32 0 33 0 34 0 35 0 36 0 37 0 38 0 
1135 0.17617424088154593 -0.2464142974839534 -0.14875480372114736 84 70 61 0.78 30 0 31 0 32 0 33 0 34 0 35 0 36 0 37 0 
1136 2.204267175328698 -0.6718094303617708 -0.10459203090053659 133 128 125 0.35 30 0 32 0 34 0 
1137 0.24343034481894799 0.10061137459480674 0.1901482853215778 100 103 109 0.57 30 0 31 0 32 0 33 0 35 0 36 0 38 0 
1138 0.1797868717469609 -0.2650560528363919 -0.13109025073073488 31 31 31 0.43 30 0 31 0 32 0 33 0 34 0 35 0 36 0 37 0 38 0 
1139 1.4555209825487636 -0.4950367249852655 -0.02559276450295589 162 143 125 0.68 30 0 32 0 34 0 
1140 -0.5352103614957937 -0.18763070263123693 -0.1629983453219941 136 151 165 0.58 30 0 31 0 33 0 34 0 35 0 36 0 38 0 
1141 -0.6708415604677582 -0.22368116478880937 -0.12038893346450286 57 55 55 1.1 28 0 29 0 30 0 31 0 33 0 34 0 35 0 36 0 38 0 
1142 -0.5556248254440549 -0.23709345534688867 -0.05266733372063526 95 81 82 0.42 30 0 31 0 32 0 33 0 34 0 36 0 37 0 38 0 
1143 -0.575773718937376 -0.23338536908139934 -0.05247878241753445 103 94 95 0.36 30 0 31 0 32 0 33 0 34 0 35 0 36 0 38 0 
1144 -0.5175035884278995 -0.255177420303041 -0.04159534064714199 98 94 94 0.48 30 0 31 0 32 0 33 0 34 0 36 0 37 0 38 0 
1145 0.8647685872426145 -0.09648770030700193 0.3924360676655706 75 50 41 0.58 30 0 31 0 36 0 
1146 -0.5047710210905343 -0.2781759427795546 -0.0328896293903318 104 98 97 1.01 30 0 31 0 32 0 33 0 34 0 35 0 36 0 37 0 38 0 
1147 -0.6440138562544211 -0.2759594469244263 -0.023405223813503295 108 106 104 1.02 31 0 34 0 35 0 36 0 
1148 1.4693076720528768 -0.8229460582759416 0.051511167001459746 194 186 176 0.46 30 0 32 0 34 0 
1149 0.8022347822650591 -0.6269772449714668 0.06645932148933931 58 44 35 0.96 30 0 31 0 32 0 33 0 36 0 37 0 38 0 
1150 0.7906143999261234 -0.6728098104431979 0.09421249001459531 36 20 15 0.58 30 0 31 0 32 0 33 0 36 0 37 0 38 0 
1151 1.4617860667850242 -0.8802579723231478 0.09699145075989268 174 159 144 0.96 30 0 32 0 35 0 
1152 0.09106374910881948 -0.5156918520814442 0.07255507737819977 51 40 34 0.43 30 0 31 0 34 0 35 0 36 0 
1153 -0.5753146294529441 -0.5041461915913988 -0.04946608186908741 95 83 79 0.58 30 0 34 0 35 0 
1154 2.2044415576200223 -1.1405165203608267 0.16146800818950002 130 147 165 0.64 30 0 32 0 34 0 
1155 1.3290987590467547 -0.5715974392168739 0.35159751679391793 170 173 181 0.5 30 0 32 0 34 0 
1156 1.427205259126633 -0.8910366983770763 0.1718666922251878 194 183 170 0.54 30 0 32 0 34 0 
1157 0.7909252926996783 -0.7198512588678668 0.13645050324898478 19 14 11 0.56 30 0 31 0 32 0 33 0 36 0 37 0 38 0 
1158 6.111303979776176 -4.246702720650725 -0.8422617574783108 163 177 198 0.29 30 0 32 0 34 0 
1159 0.32494825903136837 -0.25879977585654446 0.4872902257067596 134 128 119 0.55 30 0 31 0 32 0 
1160 0.303048466985101 -0.3939262550376581 0.6075531271176376 104 90 79 0.2 30 0 31 0 36 0 
1161 1.3432998581696787 0.5198266116068543 0.055037313176062086 143 130 130 0.26 30 0 32 0 34 0 
1162 1.9918864439779558 0.43093396570720177 0.04494625154370113 93 116 82 0.31 30 0 32 0 34 0 
1163 0.43392753460274053 1.0856893784041644 0.6835856017111789 76 73 65 0.78 30 0 31 0 32 0 
1164 1.9854221010822002 0.40097312800492313 0.02399794915146869 65 69 46 0.33 30 0 32 0 34 0 
1165 1.807031615888513 0.4220486727329621 0.07157125009865828 31 45 32 0.18 30 0 32 0 34 0 
1166 0.48759344551191036 0.5167837471934155 0.020759472783043464 57 59 69 0.6 30 0 31 0 32 0 33 0 34 0 35 0 
1167 2.0412932140344253 0.45113190787159885 0.029201998168611687 107 105 98 0.24 30 0 32 0 34 0 
1168 0.02749878509197734 0.938134241570714 0.301534265145044 108 68 69 0.82 30 0 31 0 33 0 
1169 0.08989030158194522 0.9422245622584936 0.3136007316460273 100 71 71 0.62 30 0 32 0 33 0 34 0 
1170 1.054380846183185 0.48374003155307743 0.08551792508404832 85 71 69 1.34 30 0 32 0 34 0 
1171 2.6195750284532 0.09384647035243843 -0.10863040931386037 94 90 92 0.44 30 0 32 0 34 0 
1172 0.1131417981909712 0.6998096826448771 0.09329821841378527 117 103 106 0.46 30 0 31 0 32 0 33 0 34 0 35 0 38 0 
1173 0.35454111424737667 0.6655377149690723 0.0837551877737508 114 102 103 0.69 29 0 30 0 31 0 32 0 33 0 
1174 0.7557321639312023 0.17253502775118046 -0.2472835011283826 138 110 85 1.2 30 0 31 0 32 0 
1175 0.128083341942131 0.12366978856108435 -0.4317505801165196 118 103 90 0.65 30 0 31 0 32 0 33 0 34 0 35 0 
1176 0.38694267250386793 0.8917471480479701 0.29873802845152253 99 86 84 0.96 30 0 31 0 32 0 33 0 
1177 -0.5096996861921181 0.22096473690527196 -0.39132348800574723 72 63 64 1.25 30 0 31 0 32 0 
1178 1.6745942106456482 0.1791712453072335 -0.025932756030338067 120 108 96 0.49 30 0 32 0 34 0 
1179 0.7506065011695364 0.2740524315760141 -0.055558222873699936 23 20 24 0.23 30 0 32 0 33 0 35 0 36 0 
1180 1.9924138974185233 0.46172603244914834 0.010022258819769925 118 94 94 0.26 30 0 32 0 34 0 
1181 0.21358527797892723 0.3504114556983181 -0.04581366345448912 42 31 30 0.6 30 0 31 0 32 0 33 0 35 0 
1182 0.22485566982471356 0.06245029681084002 -0.37981915221618 96 83 72 0.82 30 0 32 0 33 0 35 0 36 0 37 0 
1183 0.21221886424365188 0.334206279820379 -0.030929591530926337 28 24 28 0.48 30 0 31 0 32 0 
1184 1.3023109392355234 0.2422212745418606 0.0788826830505347 57 72 88 0.56 30 0 32 0 34 0 
1185 0.06242527477564466 0.9078189331286789 0.2696959899730239 103 72 73 0.48 30 0 31 0 32 0 
1186 0.20993825219897222 0.3104525605937206 -0.021150402563107185 25 28 32 0.18 30 0 32 0 34 0 
1187 3.58472702225077 -0.6960505346578529 -0.6320930316077977 26 35 16 0.33 30 0 32 0 34 0 
1188 0.22033535154071632 0.023700105747523126 -0.3569963985347737 98 91 83 0.7 30 0 32 0 33 0 36 0 37 0 
1189 1.4500766826870917 -0.17814187022116823 -0.33702429154008406 34 32 34 0.35 30 0 32 0 34 0 
1190 0.7853895965720179 -0.08915122412662163 -0.35280601159673675 53 54 54 0.33 30 0 31 0 32 0 33 0 34 0 35 0 
1191 0.6540066341871682 -0.10529908753912764 -0.31886940789808815 31 23 23 0.18 30 0 33 0 35 0 
1192 0.7348755210966708 -0.13347182796687063 -0.31769803496353943 106 81 70 0.83 30 0 31 0 33 0 34 0 36 0 
1193 0.16944158390781214 -0.04056708683466731 -0.30855798527253564 78 69 66 0.6 30 0 31 0 32 0 33 0 34 0 35 0 36 0 37 0 38 0 
1194 0.07550989830846239 -0.6923831799313188 0.21641756425779202 26 18 14 0.85 30 0 31 0 35 0 36 0 
1195 2.4022955422854855 -0.41308086361735225 -0.3147317899367169 126 109 102 0.33 30 0 32 0 34 0 
1196 0.83793288269212 -0.16077952630170095 -0.2904617842699321 116 104 91 0.73 30 0 31 0 32 0 33 0 35 0 36 0 37 0 
1197 0.208750617293288 -0.07002679783697147 -0.29536941115937965 119 110 101 0.45 30 0 32 0 33 0 35 0 38 0 
1198 1.3523774303318752 0.021924487021670602 0.04883939258986858 148 144 139 0.81 30 0 32 0 34 0 
1199 1.2743044437789353 -0.6204038763131579 0.5060872615480544 104 73 55 0.61 30 0 32 0 34 0 
1200 0.08970290464812444 -0.6839599334394124 0.18623066470169303 24 18 15 0.6 30 0 31 0 35 0 36 0 
1201 -0.06666765561152171 -0.10857594430964285 -0.38603170631807643 70 93 95 0.66 30 0 33 0 34 0 
1202 0.26137755941191587 0.22850382298154537 0.07976690745026249 108 112 119 0.71 30 0 33 0 34 0 36 0 37 0 38 0 
1203 0.18440576565038316 -0.0796973557402409 -0.2768888032602458 96 86 77 0.31 30 0 32 0 35 0 
1204 0.6462987034086629 -0.16328704786310733 -0.2682807776872075 71 68 65 0.39 30 0 33 0 34 0 
1205 -0.5744458372264029 0.016549500102570502 -0.3251363008808331 128 151 166 0.43 30 0 32 0 33 0 34 0 38 0 
1206 -0.513558652991331 -0.004481416916715719 -0.33177895237754806 109 131 141 0.74 30 0 31 0 34 0 
1207 -0.5348303875530458 0.009576087519049814 -0.3377732715165991 76 103 110 0.59 30 0 31 0 32 0 33 0 34 0 35 0 36 0 37 0 
1208 -0.06016802887001921 0.8568168260634129 0.17375703749821858 98 79 79 0.41 30 0 31 0 35 0 
1209 -0.5389164350384883 -0.015594279033575575 -0.32255723594553587 76 99 105 0.42 30 0 32 0 33 0 34 0 35 0 36 0 38 0 
1210 -0.512519778117435 -0.012879275880105068 -0.31543209492253643 84 100 109 0.59 30 0 31 0 35 0 
1211 0.8321553512219995 -0.23655794903551927 -0.25037522300178494 103 82 71 0.45 30 0 31 0 32 0 33 0 37 0 
1212 1.4882856415792192 -0.34629132169157256 -0.2375220822122991 158 156 147 0.64 30 0 32 0 34 0 
1213 -0.5153405427718779 -0.023340351005469495 -0.30464546541355253 136 152 168 0.6 30 0 32 0 33 0 34 0 35 0 36 0 37 0 38 0 
1214 0.00017909617745792694 -0.13065670068975965 -0.30811165151670783 66 90 95 0.6 30 0 31 0 32 0 33 0 34 0 35 0 
1215 1.4193678492852029 -0.016653793019062668 0.12523930594665222 147 156 162 1.47 30 0 32 0 34 0 
1216 -0.5162739911012253 -0.035471484371182194 -0.29343925376771174 128 146 159 0.42 30 0 31 0 32 0 33 0 34 0 35 0 36 0 37 0 38 0 
1217 5.927430372964415 -4.184257235626442 -0.7655013710348314 137 165 182 1.13 30 0 32 0 34 0 
1218 0.8937736449882964 -0.2783475855198083 -0.2242344009930718 58 56 52 0.5 30 0 31 0 32 0 33 0 34 0 35 0 36 0 37 0 38 0 
1219 -0.5429520581924585 -0.05147668866525945 -0.2923346661754346 80 108 116 0.44 30 0 32 0 33 0 35 0 37 0 
1220 -0.5163225050996141 -0.04423102070239199 -0.27924961052766406 115 141 156 0.51 30 0 32 0 33 0 34 0 35 0 
1221 -0.5820328904155841 -0.038904856002366706 -0.2806207985321315 137 155 169 0.65 30 0 31 0 33 0 34 0 35 0 36 0 
1222 0.07994048855987496 -0.17499559112130547 -0.25633911968241563 52 71 81 0.6 30 0 31 0 32 0 33 0 34 0 
1223 -0.14891046978255074 0.2824800612374909 0.15023874152530559 112 106 101 0.99 30 0 32 0 33 0 38 0 
1224 -0.009121769893808696 -0.1999998976271326 -0.25514933474037726 68 94 99 0.35 30 0 31 0 33 0 34 0 
1225 -0.08127613331579558 -0.13269400273903492 -0.21153543126673602 68 91 93 0.95 30 0 33 0 34 0 
1226 0.818980479947345 -0.7710800620775987 0.1615391558026561 38 27 20 0.51 30 0 31 0 32 0 33 0 36 0 37 0 
1227 -0.5484219657438212 -0.10004525274013543 -0.2545717980124106 70 95 104 0.28 30 0 31 0 33 0 34 0 35 0 36 0 37 0 38 0 
1228 1.5090074246041392 -0.4659786340379493 -0.20406661133255455 158 150 144 0.29 30 0 32 0 34 0 
1229 -0.3160219798091666 -0.40545671844138964 0.12703706421457672 97 89 82 1.46 30 0 31 0 36 0 
1230 0.1331664802847023 -0.198550827377503 -0.17492176914501512 90 81 72 0.41 30 0 31 0 32 0 33 0 34 0 35 0 36 0 37 0 38 0 
1231 0.17466004211604685 -0.23587895112661045 -0.17876353488043406 46 35 36 0.89 30 0 31 0 32 0 33 0 34 0 35 0 36 0 
1232 -0.46451350287408544 -0.09601479135899338 -0.17912362401743298 56 50 59 0.97 30 0 32 0 34 0 
1233 -0.542567669991905 -0.40599303349311255 0.0594236507517133 33 29 19 0.93 30 0 33 0 35 0 37 0 
1234 -0.012879696374169747 -0.2350359474092066 -0.22085446598963931 62 87 94 0.63 30 0 31 0 32 0 33 0 34 0 35 0 36 0 
1235 -0.6827909770472748 -0.06724847800997091 -0.16525031351042618 103 95 93 0.7 30 0 32 0 34 0 35 0 
1236 0.07187966149097685 -0.2835702072756518 -0.1860426917504857 97 107 122 0.63 30 0 32 0 35 0 
1237 -0.5315057197572903 -0.15884666824395233 -0.18504478807719804 128 146 160 0.4 30 0 31 0 32 0 33 0 34 0 35 0 36 0 37 0 38 0 
1238 -0.02257253947981036 -0.30543886972218426 -0.16824536413734992 48 65 66 0.39 30 0 33 0 35 0 36 0 
1239 -0.5618463980193658 -0.19077214306097634 -0.17066602711952295 102 113 129 0.52 30 0 31 0 32 0 34 0 
1240 1.3906973066217154 -0.5478247601047499 -0.05831829456822002 120 98 76 0.56 30 0 32 0 34 0 
1241 0.1287611353129576 -0.47382972887698155 0.0394414866705336 64 58 55 0.37 30 0 31 0 34 0 35 0 36 0 
1242 1.5275905325511572 -0.855271901181061 0.03722772202337643 126 121 127 0.63 30 0 32 0 35 0 
1243 -0.12011361712055368 0.819113326409285 0.14122170037105264 98 72 72 0.76 30 0 32 0 33 0 
1244 -0.29680344332309483 0.1703938019025828 0.2372540707050722 118 113 120 0.46 30 0 31 0 35 0 
1245 -0.06129712531045173 -0.3127775994368623 -0.13019746498430507 58 52 49 0.15 30 0 32 0 33 0 35 0 
1246 0.029381027943863325 0.9582275355509512 1.0484948208916167 95 88 70 0.59 30 0 31 0 32 0 
1247 -0.0622247147605926 -0.3210722443970987 -0.11704420787427816 21 13 14 0.35 30 0 31 0 33 0 
1248 -0.09418009239221581 0.8479535233430618 0.1781662061250101 85 71 71 0.63 30 0 31 0 32 0 33 0 34 0 35 0 36 0 
1249 -0.28027943483254036 -0.3027166792843627 -0.13670594308960793 72 47 44 0.32 30 0 31 0 36 0 
1250 -0.5745308342379958 -0.26780496630729567 -0.03333831614078531 129 123 117 0.77 29 0 30 0 31 0 32 0 33 0 34 0 35 0 36 0 37 0 38 0 
1251 0.16379073420559687 -0.43315446235713667 0.005732366447934734 72 61 56 0.35 30 0 31 0 32 0 35 0 
1252 0.17609599460503628 -0.366671764981825 -0.0556431667001942 68 61 55 0.48 30 0 31 0 32 0 33 0 34 0 35 0 36 0 
1253 -0.23283336076313987 0.14927485780747152 0.28579967294563835 167 175 178 0.83 30 0 32 0 34 0 
1254 1.4227582612318461 -0.6272575562687779 -0.005868750711866766 78 79 79 0.82 30 0 34 0 35 0 
1255 4.698992631835812 -2.7825979909576573 -0.8695059151506197 139 166 177 1.43 30 0 32 0 34 0 
1256 -0.48736482607169096 -0.2684622741915589 -0.04775080094908324 84 70 70 0.9 30 0 31 0 33 0 34 0 35 0 36 0 37 0 38 0 
1257 -0.07349889650706998 0.8450779903697844 0.17866517299378704 88 85 86 0.73 29 0 30 0 31 0 33 0 34 0 35 0 
1258 0.16735955498885594 -0.4068289461787837 -0.021993644554542113 96 88 85 0.74 30 0 32 0 34 0 35 0 
1259 -0.5034635300794562 -0.24791451431204198 -0.05762698584881509 84 62 62 0.52 30 0 31 0 32 0 33 0 34 0 35 0 36 0 37 0 38 0 
1260 0.33613508510879586 1.0961058212178196 0.6808101084851036 102 92 89 0.42 30 0 31 0 32 0 
1261 0.7954045817451683 -0.06317648949518706 0.3317080989313036 148 153 158 0.54 30 0 31 0 32 0 33 0 35 0 36 0 38 0 
1262 1.3894577658862988 -0.6115936294152913 -0.018780427626832075 126 94 70 0.31 30 0 32 0 35 0 
1263 -0.45428532483338513 -0.18208041916022832 -0.07107273397813885 85 76 81 1.23 30 0 31 0 33 0 34 0 35 0 
1264 0.3939520553966372 0.5367451479284268 0.010108356772689953 85 74 78 0.4 30 0 31 0 32 0 
1265 0.7705117706120805 0.46312608518340437 -0.0016246707426118556 73 69 71 0.84 30 0 31 0 32 0 
1266 0.12140982305507897 -0.440731611360495 0.01833579135034069 73 59 50 0.64 30 0 31 0 35 0 
1267 -0.01157757263596193 0.9506547466757492 0.30942418458286325 78 70 71 0.43 30 0 32 0 33 0 34 0 
1268 1.2765577260789436 0.3908567613412026 0.028911999516232245 30 31 37 0.34 30 0 32 0 34 0 
1269 0.4962795352450512 0.6076629776458388 0.2227211955525067 56 48 52 1.07 30 0 33 0 34 0 35 0 
1270 -0.29632098586619504 0.179583496929266 0.2280370330574416 94 90 98 1.06 30 0 31 0 32 0 33 0 34 0 
1271 0.1191174328634039 -0.5072444704670727 0.05615325682691341 56 42 35 0.3 30 0 31 0 34 0 36 0 
1272 0.14283153067595197 -0.2559284206863164 -0.1258962167748835 65 60 55 0.57 30 0 31 0 35 0 
1273 0.7416049621140903 -0.3940217696495458 -0.11495969196552103 122 117 105 0.43 30 0 33 0 36 0 37 0 
1274 -0.297989011307665 0.7173746128879602 0.042218464454729654 51 62 65 0.48 30 0 32 0 34 0 35 0 
1275 0.073332191752146 -0.5287202149691428 0.038864234520707974 57 49 45 0.58 30 0 31 0 35 0 
1276 0.1482945079277561 -0.5118433095576695 0.07469214609531627 64 52 43 0.35 30 0 31 0 36 0 
1277 1.051931741789041 0.3913663065290488 0.05412521417414484 38 34 35 1.03 30 0 32 0 34 0 
1278 -0.301077865207825 0.2005631452242438 0.17368464399685302 122 127 138 0.79 30 0 31 0 33 0 
1279 -0.5300530807404933 -0.14759045856675407 -0.19610239762930404 134 152 165 0.45 30 0 31 0 32 0 33 0 34 0 35 0 36 0 37 0 
1280 -0.16085843285287593 0.5546764146954772 0.05548176083673706 100 124 121 0.74 30 0 31 0 32 0 33 0 34 0 36 0 38 0 
1281 0.6732972825003998 -0.3420526888147462 -0.14344270700765327 97 85 77 0.43 30 0 33 0 34 0 35 0 
1282 -0.5243871908217639 -0.11016371278435733 -0.21898174505681 108 129 141 0.52 30 0 31 0 32 0 35 0 
1283 -0.5521085930549856 -0.1235739950969662 -0.24010359681293925 99 130 142 0.19 30 0 32 0 34 0 35 0 
1284 1.495068399630131 0.2614216582497675 -0.02226680411753068 82 75 75 1.1 30 0 32 0 34 0 
1285 0.24825905215053012 0.13935509447957928 0.1598901769032598 107 107 111 0.59 30 0 31 0 33 0 35 0 
1286 0.16353957640780828 0.1244025291009313 -0.419607015713389 127 106 89 0.39 30 0 32 0 33 0 34 0 
1287 -0.12350705319904076 0.44857629651347 -0.0030710361250114726 69 58 52 1.2 30 0 31 0 32 0 33 0 36 0 
1288 0.8509609031712841 -0.2755866844245187 -0.2180090459743126 97 83 72 0.61 30 0 31 0 32 0 33 0 35 0 36 0 37 0 38 0 
1289 2.127075508205149 0.443945211266748 -0.000636129452267542 67 62 57 0.24 30 0 32 0 34 0 
1290 0.25396561356771924 0.18281638086107121 0.12191352885672446 123 126 130 0.14 30 0 31 0 34 0 
1291 0.17969029566642872 -0.1430637257067039 -0.2313971158938143 76 67 60 0.44 30 0 31 0 32 0 33 0 36 0 37 0 38 0 
1292 -0.4391351948991783 0.34694950696242055 -0.20140309148453606 69 65 63 1.13 30 0 33 0 34 0 35 0 
1293 1.3172844707409563 0.3159298005876914 0.11777088312040773 61 73 91 0.34 30 0 32 0 34 0 
1294 0.15425386673756603 -0.6305979138312006 0.15153089485149984 39 29 22 0.41 30 0 31 0 35 0 
1295 -0.009140003891752735 -0.6487204251338744 0.10622575793287681 25 26 22 0.54 30 0 31 0 35 0 
1296 0.8121905492490255 -0.46246179741717963 0.6276366368944607 105 96 86 0.66 30 0 33 0 36 0 38 0 
1297 -0.6900799904647766 0.05859577517172132 -0.28890043670878174 97 86 89 0.22 30 0 31 0 32 0 
1298 0.5136102038668283 0.6822895567453496 0.12505322205847136 29 30 36 0.5 30 0 31 0 32 0 33 0 35 0 36 0 38 0 
1299 0.14890839430190783 -0.06848331779772443 -0.2804590389119149 121 114 105 0.11 30 0 33 0 35 0 
1300 0.023130199120918404 0.9164082701574549 0.2739608027316801 117 78 77 0.8 30 0 31 0 32 0 33 0 
1301 -0.5430433412650935 0.026262332296734137 -0.35858392006410666 103 128 139 0.66 30 0 32 0 33 0 34 0 35 0 36 0 37 0 38 0 
1302 -0.6749235395262512 0.12022061729371591 -0.31082868768649463 103 95 94 0.47 30 0 31 0 33 0 34 0 36 0 37 0 38 0 
1303 0.09545678272920294 -0.05661187897397857 -0.36489329161128947 66 85 99 0.4 30 0 31 0 32 0 33 0 34 0 35 0 36 0 37 0 
1304 0.207459261440974 0.2940975082479227 0.0008780250779051313 32 30 37 0.57 30 0 32 0 33 0 34 0 35 0 
1305 0.8079187287018956 0.19758296096871608 0.024926109382279682 130 131 134 0.75 30 0 31 0 32 0 33 0 34 0 35 0 
1306 0.1443292172361518 -0.001948169840823466 -0.33945271509965924 116 102 92 0.49 30 0 31 0 32 0 
1307 5.039417221417611 -2.9144530163455955 -1.427864623490382 79 80 62 0.76 30 0 32 0 34 0 
1308 -0.518496175419569 -0.05792887194370305 -0.2740746414326811 105 125 136 0.72 30 0 31 0 32 0 33 0 34 0 35 0 37 0 
1309 1.6533189423308998 0.16158496225252283 -0.0544618367537103 41 37 45 0.55 30 0 32 0 34 0 
1310 -0.2702619019300958 0.17536575606538019 0.255001227887934 176 186 196 1.19 30 0 33 0 34 0 35 0 
1311 -0.5245102782933575 -0.10243289462579652 -0.23233296041737816 127 142 155 0.59 30 0 31 0 33 0 34 0 35 0 37 0 38 0 
1312 -0.0749593472015761 -0.14316765785143148 -0.2709494232341668 121 131 142 0.93 30 0 33 0 34 0 35 0 
1313 1.0982221184414134 -0.5739977639302469 0.37320550066117486 33 31 21 0.74 30 0 31 0 36 0 
1314 0.14296028767215546 0.9011231936080383 0.2737770339577511 89 83 82 0.57 30 0 31 0 32 0 33 0 34 0 
1315 -0.24744735893409397 0.7495079676595514 0.10369484167394194 111 114 119 1.01 29 0 30 0 31 0 32 0 33 0 34 0 36 0 38 0 
1316 0.9437868879262227 0.3086018881050918 0.012386696507276862 179 179 178 1.43 30 0 32 0 34 0 
1317 0.7910702021678279 0.4634761018365019 0.17001084998079208 44 53 68 0.84 30 0 31 0 33 0 34 0 
1318 0.8036483011468692 0.11001445641290963 0.16508857540129263 151 154 159 1.2 30 0 31 0 32 0 33 0 34 0 35 0 36 0 
1319 1.3696982756175706 0.432982466021386 0.04723131288811966 40 33 34 1.04 30 0 32 0 34 0 
1320 0.8110356405344302 -0.1672985140043507 -0.29334430353877294 99 91 82 0.76 28 0 29 0 30 0 31 0 32 0 33 0 35 0 36 0 37 0 
1321 0.22724339631981605 0.9141493542212354 0.30160061279575745 96 76 77 0.37 31 0 32 0 33 0 
1322 -0.06989629501225608 0.9687189092109268 0.3222696281067946 84 78 82 0.88 31 0 32 0 33 0 34 0 
1323 0.34219992694965234 0.8766599719999763 0.2769838606932066 89 74 72 0.45 31 0 32 0 33 0 
1324 0.25717845566926856 0.8617002335189036 0.24578793365573726 88 79 80 0.26 31 0 32 0 33 0 
1325 0.160601563721112 0.8894294062137952 0.26244961716749027 105 82 82 0.5 31 0 32 0 33 0 34 0 
