# 3D point list with one line of data per point:
#   POINT3D_ID, X, Y, Z, R, G, B, ERROR, TRACK[] as (IMAGE_ID, POINT2D_IDX)
# Number of points: 458, mean track length: 5.15
2531 -0.42710820182459164 -0.02559798411831471 -0.5372297391010643 155 152 152 0.64 84 0 85 0 87 0 88 0 
2532 -0.2422140610356792 0.06000159347043521 -0.6701491238815613 164 156 150 0.44 84 0 86 0 89 0 
2533 -0.550080350370126 -0.3920921259797725 -0.2628279590591931 68 67 65 0.41 84 0 85 0 86 0 
2534 -0.8925266222048783 -0.14290045883829694 -0.5832279154884872 136 134 134 0.59 84 0 87 0 88 0 90 0 
2535 -0.5460416494126565 -0.08176124103915972 -0.4185094921022725 141 136 134 0.54 84 0 87 0 88 0 89 0 
2536 -0.8817561139969717 -0.06399160819136251 -0.9012236900533188 141 139 143 0.65 84 0 85 0 86 0 87 0 88 0 89 0 90 0 91 0 
2537 0.5126781357264615 0.15470101154365357 -0.1472797447234675 102 108 108 1.42 84 0 87 0 88 0 89 0 90 0 91 0 
2538 -0.7388560582007897 -0.03946945085180009 -0.6823574650372795 155 161 180 1.38 84 0 85 0 86 0 87 0 88 0 89 0 90 0 91 0 
2539 -0.5122105053053324 -0.12602083160657185 -0.27021479976994245 167 166 165 3.08 84 0 86 0 87 0 88 0 
2540 0.09670780843433904 0.13618376482447858 -0.6105536059720289 134 125 122 0.2 84 0 85 0 87 0 
2541 -0.23394829661868108 0.05406218581370692 -0.7136073401042395 158 155 154 0.88 84 0 85 0 87 0 
2542 -0.34607105225183377 -0.09870485079431535 -0.15663937292229568 105 106 113 1.53 84 0 85 0 86 0 87 0 
2543 -0.6868749147426768 0.053805021255297625 -1.1395289103802013 132 117 119 0.59 84 0 85 0 86 0 87 0 88 0 89 0 
2544 -0.2534259250354062 0.07461558539960755 -0.7504885699212918 153 138 135 0.42 84 0 85 0 86 0 87 0 88 0 
2545 -0.430595610777574 0.08249675786987387 -0.9099837264041115 52 46 50 0.68 84 0 86 0 87 0 88 0 89 0 
2546 -0.00904924401410831 -0.01306113713011614 -0.13961208483759324 70 72 80 1.42 84 0 87 0 89 0 
2547 -0.4500523112440472 0.0766076487556433 -0.9696759743717736 127 110 106 0.32 84 0 85 0 86 0 87 0 88 0 89 0 90 0 91 0 
2548 -0.3471515458485356 -0.042820129967464426 -0.3987631091661852 106 109 115 0.73 84 0 85 0 86 0 87 0 89 0 90 0 91 0 92 0 
2549 -0.5083973236054268 0.06885675290585302 -1.0074508403287719 146 133 127 0.62 84 0 85 0 86 0 87 0 88 0 89 0 90 0 91 0 
2550 -0.35738178967983425 0.010952104658755513 -0.6287458312373739 152 146 147 1.1 84 0 85 0 86 0 87 0 88 0 89 0 
2551 -0.790567842983687 -0.011857922596731463 -0.9980464240783973 155 150 148 0.3 84 0 87 0 88 0 89 0 
2552 -1.004353032548434 -0.14451413646967737 -0.7387491735571108 124 110 111 0.6 84 0 85 0 86 0 87 0 88 0 89 0 90 0 
2553 -0.16115302738139423 0.10335221984448939 -0.716343245374083 163 145 141 0.6 84 0 85 0 86 0 87 0 
2554 -0.13410668350189967 0.07605509662365595 -0.6370825914133058 161 152 150 0.51 84 0 85 0 86 0 87 0 
2555 -0.42820561270856217 0.0013549887651087555 -0.6478277255018194 148 147 149 0.48 84 0 85 0 86 0 87 0 88 0 89 0 90 0 91 0 92 0 
2556 -0.3022619342746552 -0.1187776473679385 -0.057681578630501384 140 130 131 0.45 84 0 85 0 86 0 87 0 88 0 
2557 -0.7534219513692714 -0.0658480231625842 -0.7492369978753941 142 139 138 0.85 84 0 87 0 89 0 90 0 
2558 -0.37935494247702295 -0.05744886591358522 -0.3930398044782324 156 159 160 0.69 84 0 86 0 88 0 
2559 -1.0800301847439195 -0.18999536856207455 -0.6192402720264703 108 98 105 0.67 84 0 86 0 87 0 88 0 89 0 90 0 91 0 92 0 
2560 0.15096466105659959 0.11824598205864123 -0.7177042265410791 24 100 164 2.44 84 0 88 0 89 0 
2561 -0.23196445003897578 -0.7745475683185197 0.14149022332672478 61 60 51 2.11 84 0 85 0 86 0 
2562 0.12332853602557295 0.09410099153389284 -0.4749614733623453 173 155 146 0.83 84 0 85 0 86 0 
2563 -0.6227014831229708 -0.13810882284152437 -0.325526130941016 147 147 148 0.75 84 0 87 0 88 0 89 0 
2564 -0.30664012412449937 -0.021815887974929282 -0.41424653587016547 145 137 132 1.36 84 0 85 0 86 0 87 0 88 0 89 0 90 0 91 0 
2565 -0.9964835740667325 -0.15996300814049946 -0.6446705241146384 127 127 129 0.36 84 0 85 0 87 0 88 0 89 0 
2566 -0.7210449319633183 0.00146612494793108 -0.9973475773904856 147 142 139 0.98 84 0 87 0 88 0 89 0 
2567 -0.5582578381090298 -0.9072340150846065 -0.10836982549948093 43 53 48 0.15 84 0 85 0 86 0 
2568 0.29423889212316523 0.09535979941737249 -0.5505533619895897 51 50 55 0.59 85 0 86 0 87 0 
2569 -1.205797012230846 1.0449662463580949 -2.0116111890411945 162 172 180 0.71 85 0 86 0 87 0 
2570 -0.4339037750800804 0.09554446949772943 -1.0417674126423093 53 58 67 0.77 85 0 86 0 87 0 88 0 89 0 90 0 91 0 
2571 -0.39987638857774865 0.0969499035118837 -0.9798982916094681 93 85 86 0.66 85 0 87 0 88 0 91 0 
2572 -0.46206137939327563 0.0677512108377516 -1.0118542157374129 94 72 73 0.92 85 0 86 0 87 0 
2573 0.11269868458663237 0.1277401314430051 -0.5496886759577251 126 107 102 0.37 85 0 86 0 87 0 88 0 
2574 -0.0003939832602931348 0.11234364025995647 -0.6346723256281348 135 115 111 0.6 85 0 86 0 87 0 88 0 
2575 -0.6114288745420988 0.059146560549933946 -1.062862629788898 97 83 84 0.33 85 0 87 0 88 0 
2576 -0.33464102551650854 0.07447632048393982 -0.8269486906732335 155 142 135 0.74 85 0 87 0 88 0 
2577 0.875663653024627 0.21475147332274624 0.11130276104256831 79 78 72 0.45 85 0 86 0 87 0 88 0 89 0 90 0 91 0 
2578 0.9280843295781681 0.22165547746052283 0.15074844749317595 73 69 66 0.8 85 0 86 0 87 0 88 0 89 0 90 0 91 0 92 0 94 0 
2579 0.05042176223111586 0.1429238751125197 -0.5138815487824122 95 103 114 0.61 85 0 86 0 87 0 88 0 89 0 
2580 -0.35390392208846866 0.06162372926882709 -0.8080313482656853 137 128 127 0.29 85 0 86 0 87 0 88 0 89 0 
2581 -0.7262590439891837 0.03375586711975198 -1.097833130154327 139 134 141 0.54 85 0 86 0 87 0 88 0 89 0 90 0 
2582 -0.14081228114671282 0.0704535430508566 -0.6247889986307538 162 157 156 0.19 85 0 86 0 87 0 
2583 -0.15878128163641766 0.07546849665513555 -0.6395539414701297 174 171 170 0.3 85 0 86 0 87 0 
2584 -0.24344088900180924 0.06647981898654964 -0.705365666994449 155 149 147 0.44 85 0 86 0 87 0 90 0 
2585 -0.3307808252670744 0.05958130616225632 -0.7701666849032547 150 142 141 0.41 85 0 86 0 87 0 88 0 89 0 
2586 -0.6426886803763089 0.028259758299431947 -0.9914526203129301 136 125 125 0.64 85 0 86 0 87 0 88 0 89 0 90 0 91 0 92 0 
2587 -0.7129483178773183 0.024419610819100157 -1.045265271942721 139 134 133 0.54 85 0 86 0 87 0 88 0 89 0 90 0 91 0 
2588 -0.28798160401093054 0.05531463481025689 -0.7026330570608659 159 153 151 0.2 85 0 86 0 87 0 88 0 89 0 
2589 -0.3170600536881433 0.043841613961121295 -0.7060183430415261 165 159 155 0.14 85 0 87 0 89 0 
2590 -0.7233456991474111 0.012976880833081461 -1.0162128095973375 144 139 139 0.48 85 0 86 0 87 0 88 0 89 0 90 0 91 0 92 0 
2591 0.10042696927248532 0.0724131372889667 -0.3573860257007604 136 119 114 0.46 85 0 86 0 87 0 88 0 89 0 
2592 -0.28640694168635106 0.03980639834553634 -0.6468866841160574 158 152 149 0.42 85 0 86 0 87 0 88 0 89 0 
2593 -0.36698815649371863 0.036188043904643585 -0.7100040056324546 165 160 160 1.45 85 0 86 0 87 0 88 0 
2594 -0.39824882638891124 0.025598743880712593 -0.7338284047255628 128 119 117 0.16 85 0 87 0 90 0 
2595 -0.28333977430268964 0.029870204260893374 -0.6111991716843139 153 146 146 0.3 85 0 86 0 87 0 88 0 90 0 
2596 -0.6300910010201041 0.003184747760959894 -0.8846606501362122 123 110 107 0.51 85 0 86 0 87 0 88 0 89 0 90 0 92 0 
2597 -0.015279391536181047 0.04485705881627533 -0.3905336254735121 91 91 104 1.22 85 0 86 0 87 0 88 0 89 0 
2598 -0.7071488813049621 -0.003938456098949494 -0.9355100060804262 149 141 138 0.35 85 0 86 0 87 0 88 0 89 0 91 0 
2599 -0.6758790866804681 -0.01260822398400352 -0.8664177506901054 69 81 93 1.19 85 0 87 0 88 0 89 0 90 0 91 0 92 0 94 0 
2600 -0.2574042815064487 0.023006119497225308 -0.5335610197076375 161 155 154 0.72 85 0 87 0 89 0 
2601 -1.1861595373130223 0.4821096104121019 -1.308424185110416 93 99 99 0.99 85 0 86 0 87 0 
2602 -0.06629252495201063 0.07229361465524153 -0.35868255786089587 162 192 222 0.63 85 0 86 0 87 0 
2603 -0.4535650589013851 -0.012055105060473581 -0.6266867891635646 144 141 141 0.19 85 0 87 0 90 0 92 0 
2604 -0.7350009136694143 -0.031098065037081124 -0.8431117412519971 155 148 143 0.33 85 0 87 0 89 0 
2605 -0.3497911334063528 -0.00421341871054115 -0.5318324539047068 161 157 154 0.95 85 0 86 0 87 0 88 0 
2606 -0.6169463229624895 0.021525365718571665 -0.7377176470860891 176 190 208 0.71 85 0 87 0 88 0 
2607 0.12081780213611107 0.0036343504076612465 -0.1510712372846279 165 160 158 3.47 82 0 85 0 86 0 87 0 
2608 -0.5674535046365097 0.03487908784773852 -0.6904911936236267 100 113 128 2.61 85 0 87 0 90 0 92 0 
2609 -0.1401270026657326 0.06379871909045876 -0.34949651866024256 138 160 180 1.22 85 0 86 0 87 0 88 0 89 0 
2610 -0.8365900701758252 -0.05128048114852124 -0.8900641113235048 130 129 138 0.89 85 0 86 0 88 0 89 0 90 0 92 0 
2611 0.013611857839076286 0.003585700208853959 -0.2067566732489614 75 74 77 1.32 85 0 86 0 87 0 88 0 89 0 90 0 91 0 92 0 
2612 -0.3959944111634248 -0.021011807354950562 -0.5310924332530802 132 125 122 0.22 85 0 86 0 87 0 88 0 89 0 
2613 0.1088196487107205 0.017611487860830444 -0.12541316756629195 167 158 150 0.74 85 0 86 0 87 0 88 0 
2614 -0.41062817396782647 -0.03340549022408146 -0.504020415919352 147 144 143 0.27 85 0 86 0 87 0 89 0 
2615 -0.07980181973205844 -0.006871468935580216 -0.24480279786620596 95 96 109 0.94 85 0 86 0 87 0 88 0 
2616 -0.6325809035313804 0.017057660297030708 -0.666586911517896 50 73 96 0.52 85 0 87 0 89 0 
2617 -0.4271545299234051 -0.04233859877316948 -0.4977299452707229 147 148 152 0.53 85 0 86 0 87 0 88 0 89 0 
2618 -0.45981051635650416 -0.039099919470688915 -0.5228949229173456 142 138 139 0.31 85 0 86 0 87 0 88 0 89 0 
2619 -0.7127688957389829 0.01372101227808531 -0.7086909688236367 26 47 60 1.03 85 0 87 0 88 0 
2620 -0.2584769998281027 0.01829482653735881 -0.3510379917288511 157 200 221 1.22 85 0 86 0 87 0 88 0 
2621 -0.33670076195246057 -0.034597730446152 -0.41303008078471004 153 151 150 0.34 85 0 86 0 87 0 89 0 
2622 -0.4335110804636024 -0.045664844122994985 -0.4868950268765535 170 169 168 0.96 85 0 86 0 87 0 88 0 
2623 -0.888803590489841 -0.08217914286788397 -0.8337702658974151 152 142 142 0.48 85 0 86 0 87 0 88 0 89 0 
2624 -0.11400497318074518 -0.020443567205279845 -0.22373872325221456 169 166 165 0.66 85 0 86 0 87 0 88 0 
2625 -0.1520826310595411 0.02011568936495367 -0.24400699833483008 72 86 107 1.4 85 0 87 0 88 0 89 0 90 0 91 0 92 0 95 0 
2626 -0.7380518757361096 -0.07662577983602814 -0.7007004323920474 110 106 111 0.51 85 0 86 0 87 0 88 0 
2627 -0.10648438622936426 -0.016811547224194534 -0.2026181934451512 163 161 158 0.81 85 0 86 0 87 0 
2628 -0.5068650565990634 -0.05980632950360265 -0.5083906952717641 153 151 152 0.3 85 0 86 0 87 0 88 0 
2629 -0.8390370991288095 -0.08527461985537754 -0.7651230992653235 132 124 121 0.45 85 0 86 0 87 0 88 0 89 0 90 0 91 0 
2630 -0.07665691331569288 -0.02857784939269359 -0.16374277983571917 158 157 157 0.24 85 0 86 0 88 0 
2631 0.08507643812953739 -0.02840445619737042 -0.03863832024607605 114 115 112 0.57 85 0 86 0 87 0 
2632 -0.48799132936245015 -0.06405184984942003 -0.47865911726963795 158 156 156 2.36 84 0 85 0 86 0 87 0 88 0 89 0 
2633 -0.5638277391723242 -0.07520900314899781 -0.5332981143894058 147 145 145 0.71 85 0 86 0 87 0 88 0 89 0 90 0 91 0 
2634 -0.048198817833187996 -0.03540801923030168 -0.12322141240837237 70 68 62 0.5 84 0 85 0 86 0 87 0 88 0 89 0 90 0 92 0 
2635 -0.4571277625551544 -0.061823499571878715 -0.4348920268726284 167 165 166 0.84 85 0 86 0 87 0 89 0 
2636 -0.5254463980768384 -0.07608778480189482 -0.4897287721784185 146 145 147 1.14 85 0 86 0 87 0 88 0 
2637 -0.27994643400759267 -0.06331155993579585 -0.2868492803700555 65 63 66 0.5 85 0 88 0 91 0 
2638 -0.7873085486871244 -0.09647545301681215 -0.6814547288793054 102 99 106 0.61 85 0 86 0 87 0 88 0 
2639 -0.16490044076817365 -0.05715628299835407 -0.19484917954036973 43 35 30 0.37 85 0 86 0 87 0 
2640 -0.10792055629019068 -0.04074080844124106 -0.1443332214991102 70 76 88 0.52 85 0 86 0 87 0 88 0 89 0 90 0 
2641 -0.0628676957663383 -0.041061846785666045 -0.0997488638858175 73 72 74 0.79 85 0 86 0 87 0 89 0 
2642 -0.18441582398091147 -0.05278591245374975 -0.17660221527147635 149 145 141 0.38 85 0 86 0 89 0 
2643 -0.4980359733528793 -0.06712881411759564 -0.41758822901769843 145 142 142 0.47 85 0 88 0 91 0 
2644 -0.678477302199942 -0.0985357705301122 -0.5541959489410053 119 111 107 0.72 85 0 86 0 87 0 88 0 89 0 
2645 -0.1444886652416346 -0.04804571850099415 -0.12574983454589628 136 132 130 0.6 85 0 86 0 87 0 88 0 89 0 91 0 
2646 -0.16884647167496655 -0.050920115619865536 -0.14390921353592123 139 128 119 0.69 85 0 86 0 87 0 88 0 
2647 -0.19498315480510062 -0.061336067268830785 -0.16327446036159476 163 151 140 0.41 85 0 86 0 87 0 89 0 90 0 
2648 -0.9972691411838739 -0.12559613498077238 -0.780462215255926 136 140 141 0.78 85 0 86 0 87 0 88 0 89 0 90 0 91 0 
2649 -0.5878849574706583 -0.09719113832901649 -0.44904840841373495 157 154 154 0.58 85 0 86 0 87 0 88 0 89 0 
2650 -0.17014946534342043 -0.06128095677530876 -0.12661150133496224 134 128 121 0.54 85 0 86 0 87 0 88 0 89 0 90 0 
2651 -0.5008291332165633 -0.08905318144003393 -0.3799320806225297 104 98 102 0.24 85 0 86 0 88 0 89 0 90 0 
2652 -0.7217104526977794 -0.11181739451960548 -0.551433655467938 125 116 117 1.27 84 0 85 0 86 0 87 0 88 0 89 0 90 0 92 0 
2653 -0.3738763898295139 -0.08186813360505418 -0.27644073330686236 103 97 98 0.24 85 0 86 0 87 0 
2654 -0.5820398601614991 -0.10154628473897787 -0.42694879894896687 141 133 130 0.4 85 0 86 0 87 0 88 0 90 0 
2655 -0.6478199133800434 -0.10711760342044396 -0.4798433452175448 150 145 145 0.55 85 0 86 0 87 0 88 0 89 0 
2656 0.023430825029689656 -0.7140722388352725 -0.02689354216067974 76 90 52 0.4 85 0 86 0 88 0 
2657 -0.24063662904932145 -0.0637229021441359 -0.16405800030390894 147 140 138 0.36 85 0 86 0 87 0 88 0 
2658 -0.22376855819767058 -0.07570228297703951 -0.13524792733525093 153 148 141 0.65 85 0 86 0 87 0 88 0 
2659 -0.973457534182617 -0.13960526799868078 -0.7084781114614045 129 128 133 0.53 85 0 86 0 87 0 88 0 89 0 90 0 
2660 -0.1840304370492369 -0.07070984244666367 -0.0980029241760767 84 86 97 0.49 85 0 86 0 87 0 88 0 89 0 90 0 91 0 92 0 
2661 -0.24593652388306972 -0.07760631459678624 -0.14411807269167287 81 81 90 0.66 85 0 87 0 88 0 89 0 90 0 91 0 92 0 
2662 -0.5328709104949308 -0.10741087661035631 -0.3568546628933946 162 159 159 0.95 85 0 87 0 88 0 
2663 -0.6192090508455647 -0.11333605062598417 -0.42493694386962355 161 155 150 0.41 85 0 86 0 87 0 89 0 
2664 -0.5224606462175434 -0.09151124493501839 -0.34708947344785557 157 153 153 0.62 85 0 86 0 87 0 88 0 
2665 -0.6031969995514465 -0.11377367261626237 -0.4045035349816726 88 93 107 0.24 85 0 87 0 90 0 92 0 
2666 -0.21822687041419106 -0.07393198825572611 -0.09967483598133531 152 147 143 1.58 85 0 87 0 88 0 89 0 
2667 -0.5816140315442099 -0.11089884391144711 -0.37910628876209596 149 148 150 1.39 85 0 86 0 87 0 88 0 89 0 
2668 -0.709047124458161 -0.12393804768556538 -0.47606472282637924 101 95 96 0.49 85 0 86 0 87 0 88 0 89 0 90 0 
2669 -0.1247875096175822 -0.09668914861887878 -0.02910689484978235 75 77 69 1.88 85 0 86 0 87 0 88 0 89 0 
2670 -0.880888196557269 -0.13768904829775952 -0.60757299139145 120 118 120 0.71 85 0 87 0 88 0 89 0 90 0 
2671 -0.787302679031906 -0.1407440014844905 -0.5187158000915522 133 124 122 0.8 85 0 86 0 87 0 88 0 
2672 -0.8473872639622678 -0.13998133921461986 -0.5626695664650954 131 126 126 0.56 85 0 86 0 87 0 88 0 89 0 90 0 91 0 
2673 -0.35279926063439393 -0.09772889368626592 -0.18320427534851813 150 148 148 0.41 85 0 86 0 87 0 
2674 -0.17071990875693652 -0.08399441887508075 -0.04106169694261297 102 104 112 0.5 85 0 86 0 87 0 88 0 90 0 91 0 
2675 -0.2530178439535318 -0.09759192254311233 -0.09483432447860762 156 155 155 0.3 85 0 86 0 87 0 
2676 -0.7620711275191988 -0.1387002253477243 -0.48241576090531413 134 132 127 0.37 85 0 86 0 87 0 88 0 89 0 90 0 
2677 -0.8307333045690922 -0.14015482734523355 -0.5337083956824071 150 144 142 0.25 85 0 87 0 88 0 
2678 -0.4698432748711435 -0.10705743970841741 -0.2568245456222318 138 135 135 0.55 85 0 86 0 87 0 
2679 -0.016988597674322897 -0.7491470833283904 -0.008008074900547335 54 65 43 0.68 85 0 86 0 87 0 88 0 89 0 90 0 
2680 -0.2171875835665766 -0.09736838822430749 -0.04989038687359448 121 122 123 0.87 85 0 86 0 87 0 88 0 89 0 
2681 -0.47075875429622804 -0.11402702577729351 -0.2427186562395891 144 140 136 0.43 85 0 86 0 87 0 
2682 -0.17836571923787978 -0.07417248346202565 -0.016200332464617606 123 124 124 1.37 85 0 86 0 87 0 
2683 -0.4891206682156596 -0.10744026489150071 -0.25398477073135384 147 146 147 1.39 85 0 87 0 88 0 
2684 -0.30894914651913097 -0.1114365832495694 -0.10762707418037465 150 143 144 0.39 85 0 86 0 87 0 
2685 -1.0660420420000403 -0.16962565426699872 -0.6858200350964001 86 81 87 0.54 85 0 86 0 87 0 88 0 89 0 90 0 91 0 
2686 -0.5275799399010856 -0.12716175794956786 -0.26923515437706014 141 136 136 0.35 85 0 86 0 87 0 
2687 -0.4665581884085167 -0.11583730695746741 -0.21882601544711489 146 143 141 0.8 85 0 86 0 87 0 88 0 90 0 
2688 -0.2152656938706997 -0.10071964123455635 -0.024630473531124686 81 60 56 0.5 85 0 86 0 87 0 88 0 89 0 90 0 91 0 
2689 -0.2860922481779551 -0.10863849232992973 -0.06999640755135195 130 132 127 0.54 85 0 86 0 88 0 89 0 90 0 92 0 
2690 -0.1849183564798341 -0.10586845002997092 0.012097380634006338 159 159 156 0.49 85 0 86 0 87 0 
2691 -0.15954773487787396 -0.1035899359624819 0.03262537082950567 100 97 95 0.57 85 0 86 0 87 0 88 0 
2692 -0.41447492016884213 -0.0986593745626354 -0.1566521654278068 149 142 142 1.0 85 0 86 0 88 0 
2693 -0.5187424294488753 -0.38437516814802586 -0.2632852015839453 96 103 103 0.9 84 0 85 0 86 0 87 0 88 0 
2694 -0.17232826989822644 -0.1161202363878755 0.05243122109835685 61 59 60 0.63 85 0 86 0 87 0 88 0 89 0 
2695 -0.19202418748592195 -0.08538945151421506 0.04293680183122017 147 143 141 1.54 85 0 86 0 87 0 
2696 -0.4817912140627759 -0.13549743783398394 -0.18022204494211236 161 161 162 0.27 85 0 86 0 87 0 
2697 -0.1540293536863657 -0.12213229937697379 0.06805095808135264 129 130 133 0.21 85 0 86 0 89 0 
2698 0.04325090672324397 -0.8230267820434214 0.08967040012702254 88 97 59 3.51 85 0 86 0 87 0 89 0 90 0 
2699 -0.17535449729583938 -0.13980461572393366 0.09970006885037641 113 115 115 1.36 85 0 86 0 88 0 
2700 -0.1447951329674135 -0.7789660635335773 0.08092757669047801 97 101 76 2.55 85 0 86 0 87 0 88 0 
2701 0.11248630437726573 -0.7770859599471389 0.28604098555384083 98 113 101 2.64 86 0 88 0 91 0 
2702 -0.44255233164658536 -0.7994969685401274 -0.11892492282503042 105 126 130 0.48 85 0 86 0 87 0 
2703 -0.4936604593438437 -0.8231427510724874 -0.15446641889446466 55 63 66 3.19 85 0 86 0 87 0 
2704 -0.5786341996508494 -0.8431655045191773 -0.22011137794720437 41 51 47 1.15 85 0 86 0 87 0 
2705 -0.4670674410819847 -0.8256076620541661 -0.13359276545740384 105 136 137 0.38 85 0 86 0 87 0 
2706 -0.5425680575922212 -0.8191920132194423 -0.17256017096274645 34 55 57 0.45 85 0 86 0 87 0 
2707 -0.48693473405066146 -0.844879491185486 -0.12250935011540554 49 66 70 0.62 85 0 86 0 87 0 
2708 -0.09431190615527571 -0.7218066479104255 0.22447218107702827 101 109 101 1.57 85 0 86 0 87 0 
2709 -0.41553882415603904 -0.8076606637390957 -0.01262869363105823 32 43 39 2.3 85 0 86 0 87 0 
2710 -0.4291580001460741 -0.8179673712727313 -0.025315292992974303 34 47 44 2.23 85 0 86 0 87 0 
2711 -0.5485551710611705 -0.955969440106762 -0.13803952354812665 70 84 82 0.65 85 0 86 0 87 0 88 0 
2712 -0.6602271466750197 -0.9381187062434113 -0.20309561887036875 53 72 69 0.89 85 0 86 0 87 0 88 0 89 0 90 0 
2713 -0.611638066050116 -0.9712815359993312 -0.17141974120465964 79 78 90 0.56 85 0 86 0 87 0 
2714 0.1882441279354474 -0.19744314956887177 0.8058330740923703 68 57 65 0.26 85 0 86 0 87 0 
2715 -0.5383621296726722 -0.9229063802194861 -0.09009720169421165 29 43 48 1.69 85 0 86 0 87 0 
2716 -0.6918492099058778 -0.9395271109652017 -0.20229832443003204 22 25 21 0.48 85 0 86 0 87 0 
2717 -0.024636081240441116 -0.24647999008175292 0.6322395281298503 126 123 122 2.17 85 0 86 0 87 0 
2718 0.26190573893769764 -0.2597695340463546 0.8383901257969971 76 84 52 0.9 85 0 86 0 87 0 
2719 -0.500326342958318 -0.8968175042899513 -0.044662414037203835 31 40 37 1.13 85 0 86 0 87 0 88 0 
2720 -0.5182176433547646 -0.8920396136728763 -0.05239848812807457 16 20 17 0.91 85 0 86 0 87 0 
2721 -0.4845530607380215 -0.8851121698260791 -0.02357283802202703 40 59 60 1.08 85 0 86 0 87 0 
2722 -0.04014614525870222 -0.2227474060946315 0.6571126469490913 73 68 73 0.34 85 0 86 0 87 0 
2723 -0.3777155571552212 -0.886859905631878 0.05711796545792902 54 72 61 3.41 85 0 86 0 87 0 
2724 -0.6823306212318038 -0.9235167244304325 -0.16745505587145626 20 30 30 0.88 85 0 86 0 87 0 88 0 
2725 -0.38584262921342827 -0.9240827862588026 0.06545172339333383 48 62 55 0.25 85 0 86 0 87 0 
2726 -0.3963509009389752 -0.931039946015179 0.07102781728314222 39 59 52 0.36 85 0 86 0 87 0 
2727 -0.5810282036849144 -0.9849072549785907 -0.062077176852192606 44 66 61 0.64 85 0 86 0 87 0 
2728 -0.3193862820604977 -0.871305530313603 0.20953398497887976 21 28 21 0.31 85 0 86 0 87 0 
2729 -0.2251149774576576 -0.970579268423007 0.25589714223594395 54 59 43 0.5 85 0 86 0 87 0 
2730 -0.4932620792014547 0.06910746965560866 -1.2160936924733123 43 113 190 3.65 86 0 88 0 89 0 
2731 -0.3051309776837884 0.02540373520736594 -1.0480566934293503 24 61 137 0.54 88 0 89 0 90 0 91 0 
2732 -0.6805458997719499 0.05818285551855529 -1.2622407668238913 99 95 92 0.6 86 0 87 0 88 0 89 0 90 0 91 0 92 0 
2733 0.5740784612467099 0.21951381158785543 -0.41648769611412195 114 156 175 0.9 86 0 88 0 89 0 
2734 0.2889823834967036 0.11062902175662281 -0.5703106637152904 31 29 35 0.53 86 0 87 0 88 0 89 0 90 0 91 0 92 0 94 0 
2735 0.6101741738053664 0.21783106843966582 -0.3885528429702747 70 113 174 2.08 86 0 88 0 89 0 90 0 91 0 
2736 1.0643714371249091 0.2739675226334155 -0.05040914414684261 32 69 120 2.76 83 0 84 0 86 0 87 0 88 0 89 0 90 0 
2737 -0.7087300709006413 0.05084133637364263 -1.1540127287668858 126 112 111 1.23 86 0 88 0 89 0 90 0 
2738 -0.4061309458894936 0.08410103107416211 -0.9461137010551437 102 94 94 0.56 86 0 87 0 88 0 89 0 
2739 -0.3724231876376719 0.08211553550458728 -0.9130747591982753 167 155 148 0.44 86 0 87 0 88 0 89 0 90 0 91 0 
2740 -0.4152248966096542 0.07417405277700695 -0.9344558140942296 90 81 86 0.42 86 0 87 0 88 0 89 0 90 0 91 0 
2741 -0.7384938435108951 0.041488089562449204 -1.141940797663906 166 177 180 0.75 86 0 87 0 88 0 89 0 90 0 91 0 92 0 
2742 -0.27525207875587265 0.08776057719590735 -0.8238163276449435 145 136 132 0.62 86 0 87 0 88 0 
2743 -0.7333008809160767 0.03667135191078752 -1.119196317903321 124 114 115 0.31 86 0 87 0 88 0 89 0 90 0 91 0 
2744 -0.7486110979377311 0.03649409686079319 -1.1270112840673812 179 187 188 0.58 86 0 88 0 89 0 90 0 
2745 0.21953349532332836 0.11516552055619633 -0.45738337742962853 57 60 67 0.69 86 0 87 0 90 0 
2746 -0.5323743282266044 0.07655162528140069 -0.9711111176734675 62 52 52 1.02 86 0 87 0 89 0 90 0 91 0 
2747 -0.7086965873186143 0.029640441120431404 -1.0768773472235673 154 147 145 0.43 86 0 87 0 89 0 
2748 0.21537975038503812 0.1194914341246518 -0.44808312861529864 59 62 66 0.4 86 0 87 0 88 0 
2749 0.20054286519697942 0.10576324846297425 -0.42853901789446347 79 80 85 0.88 86 0 87 0 88 0 89 0 90 0 
2750 -0.7549944141673212 0.027796658231031612 -1.0804773322944397 164 166 169 1.9 86 0 87 0 88 0 89 0 
2751 -0.6934180955171009 0.020513914903720787 -1.0305768572658862 132 126 126 0.27 86 0 88 0 89 0 90 0 
2752 1.2360377930426223 0.23684843982151538 0.23666687212070414 36 37 39 0.71 86 0 87 0 88 0 91 0 
2753 0.0033173097856226408 0.1423051379910052 -0.5511616344119221 102 106 113 0.81 85 0 86 0 87 0 88 0 89 0 90 0 91 0 92 0 
2754 -0.21106497191791482 0.061374213033237535 -0.6547452287220721 149 147 147 0.32 86 0 89 0 90 0 
2755 -0.11528521288877011 0.11924783540150807 -0.5995817552759477 144 162 189 2.19 86 0 87 0 88 0 89 0 
2756 -0.2720059549276975 0.048892502139048055 -0.6897001454219516 151 149 148 1.94 86 0 87 0 88 0 89 0 
2757 -0.7495815681776966 0.005327394541999597 -1.0198934314985917 152 150 152 0.68 86 0 87 0 88 0 89 0 90 0 91 0 
2758 -0.7665525309067466 0.0005064534896186412 -1.0315060865962646 154 145 145 0.31 86 0 88 0 89 0 
2759 -0.1349766337652257 0.09522545268512972 -0.6028002235780368 119 117 126 0.91 86 0 89 0 91 0 
2760 0.08545850965913551 0.0904309341944165 -0.4222081836246274 133 126 120 0.77 86 0 89 0 90 0 91 0 92 0 
2761 -0.3583095121109968 0.03851904532045625 -0.7183196449262264 162 158 156 0.27 86 0 87 0 88 0 89 0 
2762 -0.4895635499491303 0.06985287974368348 -0.8028760208264791 163 184 207 2.1 84 0 85 0 86 0 87 0 88 0 89 0 90 0 
2763 -0.8325883989616406 -0.033658063370015645 -0.9639309638761673 167 164 174 0.26 86 0 87 0 88 0 
2764 -0.6897704034747274 -0.021600313960320472 -0.8457567337528333 143 133 128 0.48 86 0 87 0 88 0 89 0 
2765 -0.06215432539669005 0.08478079677689232 -0.4118083160621746 106 142 169 1.78 86 0 88 0 89 0 
2766 -0.3979049593419658 0.007548588417831237 -0.6245734231017592 143 142 143 0.86 86 0 87 0 88 0 89 0 90 0 91 0 92 0 
2767 -0.8084675650521068 -0.0416995039658159 -0.8960394350997642 161 160 161 0.34 86 0 87 0 88 0 89 0 
2768 -0.4156410895590682 0.016088189019420662 -0.6187739137205122 154 147 145 0.74 86 0 87 0 88 0 
2769 -0.19290513013680463 0.04257661205476482 -0.4392999952429264 63 66 69 1.07 86 0 87 0 88 0 89 0 
2770 -0.058142093384522114 0.041795234661544 -0.3376454032220755 90 90 106 1.62 80 0 81 0 84 0 85 0 86 0 87 0 88 0 
2771 0.8712505643700238 0.14053825454634783 0.286360901283651 103 108 116 1.67 79 0 80 0 81 0 82 0 84 0 85 0 86 0 88 0 90 0 91 0 
2772 -0.07884484157055446 0.08496373594709095 -0.3377022426224632 65 86 103 2.03 86 0 88 0 89 0 90 0 92 0 94 0 
2773 -0.6488045564020856 0.019103617940857687 -0.7296726969059226 39 53 65 0.51 86 0 87 0 88 0 
2774 -0.10708166733226196 0.082698604500965 -0.3492817641318773 110 163 206 0.65 86 0 87 0 88 0 
2775 -0.7988968877677641 -0.06263798706987678 -0.8166454889274717 140 130 126 0.45 86 0 87 0 88 0 89 0 91 0 
2776 -0.832912162585805 -0.062409292441742314 -0.8420850922969234 156 148 147 0.57 86 0 87 0 88 0 89 0 
2777 -0.09814509120642231 0.06119444995110945 -0.31774189876932013 93 134 166 0.38 86 0 87 0 88 0 
2778 -0.1859704622140896 0.02095890069774886 -0.36584600254930866 83 127 154 1.7 86 0 87 0 88 0 89 0 
2779 -0.9248199679465837 -0.07863454370068679 -0.8805472042039337 119 117 118 0.62 86 0 89 0 90 0 91 0 
2780 -0.6765944427519567 -0.004118228671863511 -0.694221299055676 79 108 156 1.79 86 0 89 0 91 0 
2781 -0.10350008052933965 -0.013693605945340748 -0.2642225951348598 107 109 114 0.43 86 0 87 0 88 0 
2782 -0.19311648655667998 0.03858503955101433 -0.32100954447596486 150 187 213 0.89 86 0 87 0 88 0 89 0 
2783 -0.1758317737863598 0.041564818622235045 -0.30698174265979095 180 201 225 0.49 86 0 87 0 88 0 
2784 -0.6053652995656155 -0.02487723320704638 -0.5898723288252548 107 118 137 1.51 86 0 87 0 88 0 89 0 
2785 -0.9612342688120602 -0.10302980032592601 -0.8318469414866443 152 165 172 0.72 86 0 87 0 90 0 
2786 0.23706628747168537 0.08720719711925828 0.007295237852736891 122 155 147 2.45 86 0 87 0 88 0 
2787 -0.33679700522143596 -0.04688163067161377 -0.38148162380704775 163 160 160 0.44 86 0 87 0 89 0 
2788 0.304352240293265 0.08045762800908318 0.07204679868194841 95 131 157 0.37 86 0 88 0 89 0 90 0 
2789 -0.9733167779154511 -0.11023785842051859 -0.815067928728253 141 148 153 0.54 86 0 87 0 90 0 91 0 
2790 -0.40383925602227666 -0.058138915121658474 -0.4137983709691926 148 143 139 0.57 86 0 87 0 88 0 
2791 -0.9417879460096317 -0.11093033412952646 -0.7910591804469109 131 126 128 0.65 86 0 87 0 88 0 89 0 90 0 91 0 92 0 
2792 0.07742265986585309 -0.004026123282391492 -0.07867173134076433 146 145 144 1.85 86 0 87 0 89 0 90 0 
2793 -1.4784780021028263 0.7896991232086575 -1.145922424628127 133 94 107 0.35 86 0 87 0 90 0 91 0 
2794 -0.9710931500558578 -0.11637440857013215 -0.7957020155787284 132 129 134 0.6 86 0 87 0 88 0 89 0 90 0 91 0 
2795 -0.2984108335714162 -0.029012645845242435 -0.32352228861509746 122 121 126 1.2 86 0 87 0 89 0 
2796 0.18854593231110853 0.05774073569243243 0.017741072659406942 137 161 179 0.6 86 0 87 0 88 0 89 0 
2797 -0.11052767711526865 -0.03928662059679966 -0.17541098315120895 111 114 119 0.96 86 0 87 0 88 0 89 0 91 0 
2798 -0.030235200403731705 -0.04271327416138804 -0.10819294532272483 110 108 106 0.28 86 0 87 0 88 0 
2799 -0.3421733735905317 -0.05947445342992408 -0.31930004646203614 101 94 91 1.37 86 0 89 0 90 0 91 0 
2800 -0.14636099081753592 -0.040293412317255584 -0.17934391323800325 69 69 70 0.56 85 0 86 0 87 0 88 0 89 0 90 0 91 0 92 0 94 0 95 0 
2801 -0.6184406238562316 -0.0897044518077521 -0.5094199170550313 148 141 138 0.45 84 0 86 0 87 0 88 0 89 0 
2802 0.08710880681955216 -0.01782391597289723 -0.0037524806536661792 74 65 69 0.63 86 0 87 0 88 0 89 0 
2803 -0.48638234912516687 -0.08104198603240675 -0.4033467391289718 138 135 134 0.65 86 0 87 0 88 0 89 0 
2804 0.054392250601589726 -0.7310339517741704 -0.05038106352692573 38 36 17 0.57 86 0 87 0 88 0 
2805 -0.7914787353995202 -0.10438718730535168 -0.6071431899675104 138 133 130 0.97 86 0 87 0 89 0 90 0 
2806 -0.09250081224323944 -0.04253333912377277 -0.1042385182943526 129 128 126 0.72 86 0 87 0 88 0 89 0 90 0 
2807 -0.2902379857400691 -0.05542008981253943 -0.23653065081743607 131 125 124 0.64 86 0 87 0 90 0 
2808 -1.0231937341032877 -0.14181058626805831 -0.7476660404456985 140 157 159 0.63 86 0 87 0 88 0 89 0 90 0 91 0 
2809 0.25329622360044124 -0.7909417333540467 0.0999994231290724 65 81 68 2.69 86 0 88 0 89 0 
2810 -0.06369533665610713 -0.06340742191671112 -0.06343050072349987 74 78 84 0.6 86 0 87 0 88 0 89 0 91 0 
2811 -0.21623771491139274 -0.06425054973692679 -0.16416344585317644 105 100 98 0.61 86 0 87 0 88 0 89 0 
2812 -0.6780239444183217 -0.11407497240977627 -0.4841209412298748 133 124 122 0.51 86 0 87 0 88 0 89 0 
2813 -0.8842327364898225 -0.13686710834948745 -0.6270026744701629 128 126 127 0.8 86 0 87 0 88 0 89 0 91 0 
2814 -0.6138543911213631 -0.10466927849161012 -0.43516827461651975 141 133 130 0.3 86 0 87 0 89 0 
2815 -0.06769867535985982 -0.0476731662559573 -0.04737738851547091 93 93 98 0.97 86 0 87 0 88 0 89 0 
2816 -0.8335404422718333 -0.13441047190478916 -0.5858669270318617 133 132 133 0.42 86 0 87 0 89 0 
2817 -0.09736405849075089 -0.06674234489091546 -0.056683074635551556 79 75 72 0.62 86 0 87 0 89 0 
2818 -0.3439000713603887 -0.08498321947664134 -0.22752995975938073 138 134 132 1.15 86 0 87 0 88 0 89 0 90 0 
2819 -0.5512753022744897 -0.12275402205071528 -0.372818367570666 165 164 162 0.9 86 0 87 0 88 0 
2820 -0.5869837910598287 -0.11060241515307001 -0.39844063931444307 136 134 135 0.29 86 0 87 0 88 0 
2821 -0.7746415885786778 -0.12800287509314434 -0.5249757430388504 140 138 138 0.48 86 0 87 0 88 0 89 0 90 0 
2822 0.07758033657992705 -0.7434860254381694 0.011427552984059286 54 68 46 0.55 86 0 87 0 88 0 
2823 -0.8716398796683478 -0.14073514083436156 -0.5839526186469581 139 135 134 0.28 86 0 87 0 88 0 90 0 91 0 
2824 -0.00984652540645034 -0.7249836710356352 -0.039940529628928356 111 120 89 0.63 86 0 87 0 88 0 
2825 -0.11288230832191823 -0.0687951312469095 -0.03972568283112743 52 53 58 0.43 86 0 87 0 88 0 89 0 90 0 91 0 92 0 95 0 
2826 -1.6952025735609801 0.8114229983958328 -1.0396894207136134 214 202 203 0.86 86 0 87 0 90 0 
2827 -0.2836014587959682 -0.10380768350834568 -0.1464480184174537 136 136 135 0.99 86 0 88 0 89 0 91 0 
2828 -0.05051501843081149 -0.0678467174406503 0.03542053799411082 104 104 109 0.26 86 0 87 0 88 0 
2829 -0.6574962330538573 -0.11911431656712734 -0.3821004035002584 144 138 136 0.3 86 0 87 0 88 0 89 0 
2830 -0.9009581201843221 -0.15512048758244812 -0.5550441081246307 127 125 125 0.48 86 0 87 0 88 0 89 0 90 0 91 0 
2831 -0.8136304617638759 -0.1549148620170837 -0.4770965465161974 170 166 161 0.58 86 0 87 0 88 0 
2832 -0.1431388015395952 -0.09428608875105282 0.008280592609171133 76 74 74 0.45 86 0 87 0 89 0 90 0 91 0 
2833 -0.15909060853296295 -0.08447414821621835 0.0004103878243932879 125 125 122 1.17 85 0 86 0 87 0 88 0 89 0 
2834 -0.12465279042633923 -0.09904191099604032 0.02516704645027046 69 76 84 0.32 86 0 88 0 89 0 
2835 -1.1000810686527747 -0.1944729009784265 -0.6388973848039066 104 112 115 0.71 86 0 87 0 88 0 89 0 90 0 91 0 92 0 94 0 95 0 
2836 -1.0258244442306368 -0.18727143378074995 -0.5810069330075915 131 127 130 0.38 86 0 87 0 88 0 89 0 90 0 92 0 
2837 -0.7330166343871719 -0.15866871757963996 -0.3713401529581204 106 101 102 1.47 86 0 88 0 89 0 90 0 
2838 -1.0408195800321547 -0.18989548852351557 -0.590765143058992 112 109 110 1.24 86 0 87 0 88 0 89 0 90 0 91 0 92 0 
2839 -0.022693847690606644 -0.530125209615216 0.06950016999375874 110 112 99 1.09 86 0 87 0 88 0 
2840 -0.0673684599805717 -0.09777526398038283 0.12090344828442268 98 95 98 0.86 86 0 87 0 88 0 89 0 91 0 
2841 -0.1475997450246149 -0.09969426392660785 0.06434795920496228 72 75 78 1.08 86 0 87 0 88 0 90 0 
2842 -1.1009295442470155 -0.20045169303831556 -0.611578592925166 59 59 66 0.44 86 0 87 0 88 0 89 0 90 0 
2843 -0.3627725538408335 -0.12058137785908762 -0.08479649038131587 102 97 96 1.17 86 0 87 0 88 0 
2844 -0.5351270474160517 -0.40309774734141723 -0.25345892495085165 144 146 143 1.85 86 0 87 0 88 0 
2845 -0.09120877938561042 -0.0986929753249437 0.1349587883294303 108 105 108 0.33 86 0 87 0 88 0 
2846 0.14641357281381698 -0.7681583871451363 0.1726298115201197 85 99 72 1.26 86 0 87 0 88 0 
2847 -0.11715634892828061 -0.10171879355834368 0.1327548254219275 150 147 143 1.62 86 0 87 0 89 0 
2848 -0.1700944292191436 -0.13297493378205116 0.08920756780353001 90 92 97 0.45 86 0 87 0 88 0 89 0 
2849 -0.19415536787661022 -0.12131131153302177 0.08755346953833065 73 73 71 0.59 86 0 87 0 88 0 
2850 -0.13840199593146504 -0.08983227100659241 0.13759104130650668 123 122 122 1.39 86 0 87 0 89 0 
2851 0.15984383830777402 -0.7738470659497485 0.19772905429678556 94 93 71 0.54 86 0 87 0 88 0 89 0 
2852 -0.10141974429940179 -0.8399062721013488 0.06831073353980499 50 52 25 0.23 86 0 89 0 90 0 
2853 -0.4811185572290948 -0.797175725060906 -0.16520108571174785 65 67 64 0.47 86 0 87 0 88 0 
2854 -0.1732034799274522 -0.7632865299420979 0.06806834822954277 72 97 73 0.41 86 0 87 0 88 0 
2855 0.055976987330340705 -0.7866728863860717 0.2552797277273311 97 104 98 1.87 86 0 87 0 88 0 
2856 -0.6406816378417345 -0.8540031181809355 -0.23254597872440663 31 47 43 0.31 86 0 87 0 88 0 
2857 -0.6776616986870048 -0.8319035386883591 -0.24920579176444768 37 46 44 0.31 86 0 87 0 88 0 
2858 -0.38628958807043956 -0.9358896859372232 0.07330644919832663 105 124 117 0.5 86 0 87 0 88 0 
2859 -0.77353754668605 -1.0189948853472168 -0.19117200584787875 29 36 26 0.6 86 0 87 0 88 0 
2860 -0.18036574732275876 0.05363732649522879 -0.95934678318772 21 56 132 0.63 87 0 89 0 91 0 
2861 0.08509009643283874 0.12601326002242863 -0.7743673605372634 97 142 194 1.82 87 0 88 0 89 0 
2862 0.37348655349391136 0.11114418134622017 -0.5358545023177914 45 76 152 0.73 87 0 88 0 89 0 91 0 
2863 -0.39255675089623476 0.09218895173222519 -0.9664401727507483 81 71 72 0.67 87 0 88 0 89 0 90 0 
2864 -0.5068331049890961 0.0802208178270889 -1.0280752017169914 124 108 96 0.32 87 0 88 0 89 0 
2865 -0.5797435566288102 0.06759073723761477 -1.0715210221037128 118 102 101 0.39 87 0 88 0 90 0 92 0 
2866 -0.6584050577621176 0.062094780630830515 -1.1153643889907894 146 126 126 0.19 87 0 88 0 89 0 
2867 0.2507398862714042 0.14517046323710492 -0.544749768074956 110 111 112 0.4 87 0 88 0 89 0 91 0 
2868 -0.9855347885209067 0.49567107964685997 -1.4174474889188966 143 130 165 0.31 87 0 88 0 89 0 
2869 -0.642494460566482 0.04676726319315638 -1.0654224232883234 127 120 118 0.82 87 0 88 0 89 0 90 0 
2870 -0.6107776907649515 0.049225852804517745 -1.040604779356395 128 110 106 0.41 87 0 88 0 89 0 
2871 -0.6276055049619652 0.04866632896724088 -1.0537189844031158 114 100 102 0.54 87 0 88 0 89 0 90 0 91 0 
2872 -0.9736293437081637 0.9559246909636504 -1.4907846081760425 198 195 218 0.49 87 0 88 0 89 0 
2873 -0.5881186313699976 0.045178979103641215 -1.007233946651418 123 116 113 0.65 87 0 88 0 90 0 91 0 
2874 -0.044107611989276235 0.13862884591525093 -0.6730410076720186 114 79 76 0.38 87 0 88 0 89 0 
2875 -0.5579564933951556 0.053676658494479 -0.9836691199888423 126 115 113 0.41 87 0 88 0 89 0 
2876 -0.615538181201087 0.044811873205504504 -1.0111586318766195 128 118 113 0.49 87 0 88 0 89 0 90 0 92 0 
2877 -0.6443595092740236 0.034501104460531895 -1.0129899334499455 142 129 128 0.35 87 0 88 0 89 0 
2878 -0.662943856520109 0.03520685778841637 -1.0269379964964234 129 119 115 0.51 87 0 88 0 89 0 90 0 
2879 -0.7730816636160739 0.01530051725349213 -1.0925125681186758 132 132 133 0.75 87 0 88 0 89 0 90 0 91 0 92 0 94 0 95 0 
2880 -0.7349457626010031 0.021375561680805788 -1.059860562410749 167 170 174 0.44 87 0 88 0 89 0 
2881 -0.38716844309031984 0.10278471087754393 -0.8475213765158265 83 83 88 0.34 87 0 88 0 89 0 90 0 91 0 
2882 -0.37200445402693194 0.060652497804084105 -0.8256664982542374 74 75 82 1.03 87 0 88 0 89 0 90 0 91 0 92 0 95 0 
2883 -0.657025256401138 0.02535943359880477 -1.0020174411197735 140 129 126 0.47 87 0 88 0 89 0 90 0 
2884 -0.6986917426199432 0.015998448321616676 -0.998409356986194 152 150 151 1.03 87 0 88 0 89 0 91 0 
2885 -0.7825453589262303 0.004977657876646724 -1.0474000848966152 144 140 144 0.52 87 0 88 0 89 0 90 0 
2886 -0.798489827376143 0.004125554932417508 -1.0581320969423413 150 160 162 0.49 87 0 88 0 89 0 90 0 91 0 
2887 -0.7027699464653783 0.0015704518812205137 -0.9836443275308704 154 149 146 0.25 87 0 88 0 89 0 
2888 -0.7352888603404373 0.0018257019327809765 -1.003540102088332 142 134 132 0.62 87 0 88 0 89 0 90 0 91 0 
2889 0.286282387068698 0.13267156858526796 -0.37074870886655864 130 125 121 0.78 87 0 90 0 92 0 
2890 -0.40030104526392163 0.04574693582088507 -0.7863313536734329 61 50 51 0.48 87 0 88 0 89 0 90 0 
2891 -0.6399547551225259 0.006654149025962841 -0.9358117342086318 153 148 146 0.4 87 0 88 0 89 0 
2892 -0.6940389834705901 -0.0009904617368816648 -0.9584097693042293 155 149 148 0.52 87 0 88 0 89 0 
2893 -0.7664664427565472 -0.0032280659429078096 -0.9981447374708039 149 145 149 1.23 87 0 88 0 89 0 90 0 
2894 -0.7875432182560603 -0.00553879243521771 -1.0112015895611806 155 148 148 1.22 87 0 88 0 89 0 
2895 -0.3289574365209047 0.07897816489781251 -0.7189502213427192 154 149 148 1.29 87 0 88 0 89 0 
2896 -0.7276026550369479 -0.008840063230702189 -0.9497043519981179 148 144 142 0.5 87 0 88 0 89 0 
2897 -0.7164587210297964 0.008311093558919902 -0.9448023623640256 129 123 123 0.37 87 0 90 0 92 0 
2898 -0.7750808143934894 -0.021121409152311532 -0.9669427794633716 141 141 144 0.48 87 0 88 0 89 0 91 0 
2899 -0.7476111060831515 -0.013233208512672068 -0.9448825722749405 127 118 118 0.73 87 0 88 0 89 0 90 0 91 0 
2900 -0.1680931181242695 0.061425912102295754 -0.5474786523530089 93 101 127 0.49 87 0 88 0 89 0 
2901 0.12131559052153854 0.06481415492102793 -0.360408120518696 54 53 56 1.6 87 0 88 0 89 0 90 0 91 0 
2902 -0.45153765034672855 0.014553444609733512 -0.7248684113702972 74 75 83 2.54 87 0 88 0 90 0 
2903 -0.6607983655630427 -0.011981842713568058 -0.8597690771585387 140 132 128 0.21 87 0 88 0 89 0 
2904 -0.8032465249705716 -0.027086997756268216 -0.9509604531138192 119 108 105 0.41 87 0 88 0 89 0 90 0 91 0 92 0 
2905 -0.6696380928955618 -0.013822679639145186 -0.8506599517320423 125 119 115 0.47 87 0 88 0 89 0 90 0 91 0 
2906 -0.34363939823492984 0.01699750137189282 -0.6382272724418461 137 137 138 0.76 87 0 88 0 89 0 90 0 
2907 -0.6699127258512271 -0.0220535014715868 -0.830560150329013 130 124 125 0.15 87 0 88 0 89 0 
2908 -0.10059979373121772 0.09170633587137411 -0.4627880532302555 122 134 158 0.57 87 0 88 0 89 0 
2909 -0.7351560912696673 -0.023595909397623016 -0.8614759702537942 136 127 124 0.79 87 0 88 0 91 0 
2910 -0.6980717419356719 -0.028799686299027405 -0.8313457467128327 138 130 126 0.49 87 0 88 0 90 0 91 0 
2911 -0.8465287989774447 -0.040447882360987286 -0.9294423910624765 140 139 144 0.87 87 0 88 0 89 0 90 0 
2912 -0.46207665932609887 0.020535306779509543 -0.6761922801847384 117 113 111 0.85 87 0 88 0 90 0 91 0 
2913 -0.500383922729949 0.07023642485429749 -0.6929280655330672 152 157 174 1.57 87 0 88 0 91 0 
2914 -0.7360561180828521 -0.03943775778345082 -0.8266054368897282 124 116 113 0.58 87 0 88 0 89 0 90 0 
2915 -0.4139503295667115 -0.008868802390214592 -0.5991748869138012 122 119 117 0.08 87 0 89 0 90 0 
2916 -0.7073129260012112 -0.04337560230137827 -0.783829724701087 121 112 107 0.48 87 0 88 0 90 0 
2917 -0.835577560293299 -0.05920580833195754 -0.8625550905862291 144 134 130 0.49 87 0 88 0 89 0 
2918 -0.7453785182569505 -0.050388163102822014 -0.7984765132660483 144 138 135 0.68 87 0 88 0 89 0 90 0 
2919 -0.8026503415501889 -0.058450406446910685 -0.8370486161609203 136 129 126 0.7 87 0 89 0 90 0 
2920 -0.7264174346152739 -0.061356642766272174 -0.7796401481783488 141 133 129 1.37 87 0 88 0 90 0 
2921 -0.8695793295025492 -0.07221913715943451 -0.8708325858750188 146 145 148 0.55 87 0 88 0 89 0 90 0 
2922 -0.8428843708727055 -0.06680670632241026 -0.8496361628536704 139 134 133 0.42 87 0 89 0 91 0 
2923 -0.7645874352851815 -0.06014874132650738 -0.7916810604080502 120 115 114 0.24 87 0 89 0 90 0 91 0 
2924 -0.5194969813612781 -0.02664348954549589 -0.622989088297639 72 65 65 0.72 87 0 88 0 89 0 90 0 91 0 92 0 
2925 -0.7338140122844351 -0.05554329333353003 -0.7620258282498567 110 112 119 0.99 79 0 80 0 81 0 84 0 85 0 86 0 87 0 88 0 89 0 90 0 91 0 92 0 
2926 -0.7352213613696571 -0.0610780071573882 -0.7517769626266779 126 122 121 0.54 87 0 88 0 89 0 90 0 
2927 -0.9333670439855839 -0.08623549857088952 -0.8695392039810725 157 169 172 0.57 87 0 88 0 89 0 90 0 92 0 
2928 -0.7433463908505357 -0.06288815462339348 -0.7368590392357137 126 119 120 0.59 87 0 88 0 89 0 
2929 -0.5383906733413628 -0.04433830753777768 -0.5997268623466967 64 58 61 0.45 87 0 88 0 89 0 90 0 92 0 94 0 
2930 -0.870514122885056 -0.08291838957794861 -0.8185090967218289 148 145 146 0.22 87 0 88 0 89 0 
2931 -0.7825420591940236 -0.07322248980198665 -0.7537993047936458 147 146 144 0.29 87 0 88 0 89 0 91 0 
2932 -0.9408891739710393 -0.08549102657285279 -0.8609404419306728 145 167 174 0.41 87 0 88 0 89 0 90 0 
2933 -0.9508282228239322 -0.07120669744211994 -0.855078511433939 166 173 179 1.6 87 0 89 0 91 0 
2934 -0.8135687548043077 -0.07938564888453903 -0.7598431866079265 132 125 122 0.32 87 0 88 0 89 0 91 0 
2935 -0.8965383587311664 -0.09186139516726932 -0.7902207299176172 137 134 135 0.25 87 0 88 0 89 0 
2936 -0.5197397859113737 -0.05381572510689492 -0.5334522687785741 145 137 132 0.76 87 0 88 0 89 0 90 0 
2937 -0.5866196251750846 -0.011375186136351578 -0.5753358002235167 127 135 153 0.58 87 0 88 0 89 0 90 0 91 0 92 0 94 0 
2938 -0.8121368942023698 -0.09375265894350271 -0.726869584031903 134 130 129 0.86 87 0 88 0 89 0 90 0 
2939 -0.7707498003995933 -0.08578706649248713 -0.6881154658016992 126 126 126 0.24 87 0 88 0 89 0 
2940 -0.8948189716190139 -0.10350990524268311 -0.7723353057201825 118 115 115 1.33 87 0 88 0 90 0 
2941 -0.8525212060686388 -0.08572873855256669 -0.7401117070731726 142 139 140 0.59 87 0 88 0 89 0 90 0 
2942 -0.8646417147588722 -0.09503480941215248 -0.7487531830483753 124 118 118 0.27 87 0 88 0 89 0 90 0 
2943 -0.8297945920962982 -0.09637926840768385 -0.7216573499221437 142 141 141 1.21 87 0 88 0 89 0 90 0 91 0 92 0 
2944 -0.8773427166598881 -0.1100196265545339 -0.7399637359686957 124 121 121 1.64 87 0 88 0 90 0 91 0 92 0 
2945 -0.8476495034862669 -0.09857615595065217 -0.717689053854695 125 119 117 0.64 87 0 88 0 89 0 90 0 
2946 -0.980796130351125 -0.10853818685409045 -0.8043500789308631 167 172 175 0.7 87 0 89 0 91 0 
2947 0.25173691194223236 0.07001721516480885 0.03573356759327462 135 164 188 0.58 86 0 87 0 88 0 89 0 90 0 91 0 
2948 -0.4725521201513624 -0.06290821042596995 -0.4471781490925597 137 135 135 0.15 87 0 88 0 89 0 
2949 -0.7582192645492971 -0.09082322405350385 -0.6348002292902355 90 77 73 0.23 87 0 89 0 90 0 
2950 -0.8131202780444525 -0.10819550574988135 -0.6728970288618052 126 120 117 0.6 87 0 88 0 89 0 90 0 91 0 
2951 -0.7838286887544615 -0.0990054747904523 -0.6498988861213295 94 83 82 0.74 86 0 87 0 88 0 89 0 90 0 91 0 
2952 -0.8396633052563417 -0.11265849795507221 -0.6760773077876707 146 142 141 0.59 87 0 88 0 89 0 91 0 
2953 0.23894369206560842 0.065042857716753 0.05836075705824895 145 169 189 0.5 87 0 88 0 89 0 90 0 91 0 92 0 
2954 0.7626908091108808 0.07343367942629442 0.4231331046450286 105 121 126 0.9 87 0 89 0 91 0 
2955 -0.549669075342827 -0.07219551168166594 -0.45392177986941684 145 141 141 0.67 87 0 88 0 89 0 
2956 -0.735062841496598 -0.11688742440051714 -0.5798883470067242 101 88 88 0.79 87 0 88 0 89 0 
2957 -1.0101968790986744 -0.1352498305288623 -0.7644416233472477 129 135 138 0.9 86 0 87 0 88 0 89 0 90 0 
2958 -0.8845506698694554 -0.12269883503105139 -0.6777381559059159 133 131 129 0.41 87 0 88 0 89 0 90 0 
2959 -0.5849447129332274 -0.08690816040057259 -0.4679937220119639 128 127 127 0.62 87 0 88 0 89 0 90 0 
2960 -0.34802993886537514 -0.05684047356980204 -0.30409607220078794 129 125 123 1.35 87 0 88 0 89 0 90 0 
2961 0.0826401292702911 -0.7264176714722355 -0.04984679621957255 57 78 49 0.44 87 0 88 0 89 0 
2962 0.14032900135717266 -0.03160325220525251 0.037787209659150944 49 48 44 1.35 86 0 87 0 88 0 89 0 90 0 91 0 
2963 -0.7610288631278209 -0.12621838065471036 -0.5665965657156007 139 130 124 0.33 87 0 88 0 89 0 
2964 -0.9163138204870527 -0.12752568468357794 -0.6669555039341364 129 123 120 1.0 87 0 88 0 89 0 90 0 
2965 -0.9429139851432417 -0.13949976949971576 -0.6874909465503061 103 98 102 0.58 87 0 88 0 89 0 
2966 0.003058401872587241 -0.037853281610107814 -0.03409085109967891 130 126 123 0.79 87 0 88 0 89 0 
2967 0.07763211166903486 0.010343091073343524 0.029773603185878406 122 119 119 0.19 87 0 88 0 89 0 
2968 -0.9397069291528656 -0.12231279728133315 -0.6680772671964559 112 107 106 0.45 87 0 88 0 89 0 91 0 
2969 -0.692896210637763 -0.11377392541636722 -0.5002970016753951 101 102 105 0.67 87 0 90 0 92 0 94 0 95 0 
2970 -0.08630243405020008 -0.05153783386004762 -0.06262585912076224 60 59 57 0.45 87 0 88 0 89 0 
2971 -0.6737145497342021 -0.1304540034603756 -0.4652010797384538 149 143 139 0.64 87 0 88 0 89 0 
2972 -0.8590050075287032 -0.1302968433812839 -0.5902454318423023 111 109 110 2.24 87 0 88 0 89 0 90 0 
2973 -0.6501917069575622 -0.1283540803208627 -0.4341372295058106 123 116 114 0.34 87 0 88 0 90 0 
2974 -0.6776351373996444 -0.11314178710959877 -0.45012736647408724 113 109 106 1.69 87 0 88 0 89 0 90 0 91 0 
2975 -1.0500354807665133 -0.15818057915971973 -0.7074233708187765 81 84 91 0.3 87 0 89 0 90 0 91 0 
2976 0.04510951855539028 -0.043659404580673966 0.05554519219626153 131 130 130 0.46 87 0 88 0 89 0 90 0 91 0 
2977 -0.4049479943627572 -0.09090965880418689 -0.25759835773044815 125 124 123 0.55 87 0 90 0 91 0 
2978 0.23110772563098034 -0.8054810418798606 0.1029156301758749 104 117 93 3.91 86 0 87 0 88 0 89 0 
2979 -0.9082668340118186 -0.1558490708242959 -0.5910562603271412 117 121 128 0.08 87 0 88 0 89 0 
2980 -0.949309857261465 -0.15824535658154004 -0.6083739072457375 152 150 149 0.43 87 0 88 0 89 0 
2981 -0.8618492251838157 -0.14938831223675297 -0.5416538057116194 116 107 108 0.12 87 0 88 0 89 0 91 0 
2982 -0.5699371532478207 -0.13347946243545183 -0.33792531117692004 145 144 144 0.23 87 0 88 0 89 0 
2983 -0.6646380109038138 -0.13557627411317363 -0.3982826287102692 92 91 96 0.94 87 0 89 0 90 0 91 0 
2984 -0.9791294104856271 -0.1650112923553686 -0.617759531103558 105 106 110 0.35 87 0 88 0 89 0 90 0 91 0 92 0 
2985 -0.051957911474987156 -0.4557921189932823 -0.023114966809141935 123 123 96 0.57 87 0 88 0 89 0 
2986 -0.9982379664513787 -0.16364669613466076 -0.6265937737385365 121 113 113 0.47 87 0 88 0 89 0 90 0 
2987 -0.9086885915500948 -0.1523910803819073 -0.5617571471970022 119 106 107 0.49 87 0 88 0 89 0 
2988 -0.029347906510362204 -0.46731103700507126 0.004117719478878623 58 72 50 1.41 87 0 88 0 89 0 
