# 3D point list with one line of data per point:
#   POINT3D_ID, X, Y, Z, R, G, B, ERROR, TRACK[] as (IMAGE_ID, POINT2D_IDX)
# Number of points: 441, mean track length: 4.24
949 -0.8208104989546703 -0.7320733984542329 0.10933606356552006 101 87 81 0.26 35 0 36 0 40 0 
950 0.20451827342939966 -0.4390139008403969 0.4473926159950887 71 67 66 0.21 35 0 36 0 37 0 
951 -0.2991817416174338 -0.3795795611990648 0.4697071623775064 90 82 83 0.46 35 0 36 0 37 0 
952 -0.954902835241479 -0.7193096436669508 0.10937683562035061 117 107 100 0.41 35 0 36 0 37 0 38 0 40 0 42 0 44 0 
953 -0.9932074421052244 -0.7106581656285998 0.11340292255338391 97 90 90 0.65 22 0 35 0 36 0 37 0 38 0 40 0 42 0 44 0 
954 -1.038398818269096 -0.7112772208595675 0.11497119988945936 87 83 80 0.35 35 0 36 0 37 0 38 0 40 0 42 0 44 0 45 0 
955 -1.4715399337347888 -0.6784423615365746 0.12916718358810475 155 157 163 0.53 35 0 37 0 40 0 
956 -0.5058220236243376 -0.7568476952187075 0.08976896875203422 66 44 41 0.74 35 0 37 0 38 0 40 0 
957 -1.21164844966643 -0.7032279821472874 0.10727397616672829 20 17 19 0.75 22 0 23 0 35 0 37 0 38 0 40 0 42 0 
958 -1.4317143207106524 -0.6692511402951327 0.12986249730256794 84 83 85 0.42 22 0 23 0 35 0 37 0 38 0 40 0 42 0 44 0 45 0 
959 0.12463494087927623 -0.8088869689651632 0.06924457615206303 28 22 19 1.0 21 0 35 0 36 0 37 0 38 0 
960 -0.3706091843688123 -0.7643662712605362 0.08205320394385529 31 28 30 0.77 35 0 36 0 37 0 38 0 40 0 42 0 44 0 45 0 
961 -0.7574413141267315 -0.7205000856403044 0.09821199632839361 103 95 90 0.21 35 0 36 0 38 0 
962 -0.7085888329232111 -0.7236925442158963 0.09303833918744342 88 74 69 0.46 35 0 36 0 37 0 38 0 40 0 42 0 44 0 
963 -0.18191983009932988 -0.3507256259941959 0.4862989702794802 40 30 27 0.32 35 0 36 0 37 0 
964 -0.337412328920202 -0.7481364666468917 0.07617579095466076 26 27 30 0.49 35 0 38 0 40 0 42 0 44 0 45 0 
965 -0.5292979938200687 -0.733274175698632 0.08116980880083813 63 49 45 0.73 35 0 36 0 37 0 38 0 40 0 42 0 44 0 45 0 
966 -0.5607557527058583 -0.7310108289701286 0.08686637114004037 48 41 44 0.72 35 0 36 0 37 0 38 0 40 0 44 0 45 0 
967 -0.8068795751314743 -0.6857884040710901 0.11569498264742317 106 91 84 0.61 35 0 36 0 37 0 38 0 
968 -1.3275952198243977 -0.648957768752333 0.12308951276523517 143 136 130 0.37 35 0 37 0 38 0 40 0 
969 -0.6629335476241245 -0.7123428530028141 0.0844151886415252 22 18 19 0.56 35 0 36 0 37 0 38 0 40 0 42 0 44 0 45 0 
970 -0.871995583570867 -0.6976613241827458 0.08642050965072268 130 119 111 1.09 35 0 40 0 44 0 
971 -1.0034111430725876 -0.7125099115993068 0.07245806200845228 66 65 72 1.19 35 0 36 0 37 0 38 0 40 0 42 0 45 0 
972 -1.0769270756326628 -0.701226151724262 0.07818623497293142 92 100 105 0.39 22 0 23 0 35 0 36 0 37 0 38 0 
973 -0.7521475012611696 -0.6949145815563418 0.08771473260209084 84 78 78 0.49 21 0 35 0 36 0 37 0 38 0 40 0 42 0 44 0 45 0 
974 -0.5894286178663084 -0.7261182182616647 0.044315440214526935 71 69 67 0.42 35 0 36 0 37 0 38 0 40 0 42 0 44 0 45 0 
975 -1.196334880747559 -0.6688800027605163 0.07071071844395216 97 125 161 0.28 35 0 37 0 38 0 
976 -0.9678274665150746 -0.6527882418994125 0.09211120710266063 121 106 97 0.48 35 0 36 0 37 0 38 0 40 0 42 0 
977 -1.0751242308150772 -0.6670872583770143 0.06656389180281685 117 140 157 0.78 35 0 36 0 37 0 38 0 40 0 42 0 45 0 
978 -1.1370657376812907 -0.6659157482772917 0.0682391521083725 144 168 183 0.34 35 0 36 0 37 0 38 0 40 0 42 0 44 0 
979 -0.47128384703057336 -0.7228315172262576 0.042188043928145014 71 72 73 0.58 35 0 36 0 37 0 38 0 40 0 42 0 44 0 45 0 
980 -0.8996881096718237 -0.6602412348519832 0.08500308597348583 127 119 113 0.46 35 0 36 0 37 0 38 0 40 0 42 0 44 0 
981 -1.2134529497282789 -0.62561097728633 0.10086248780265694 77 71 71 1.08 21 0 23 0 35 0 37 0 38 0 40 0 42 0 
982 -1.2724951875479493 -0.6160377515820579 0.10126538227962545 77 76 81 0.63 21 0 23 0 35 0 37 0 38 0 40 0 42 0 44 0 45 0 
983 -0.68715564876709 -0.6638530252542328 0.06788555987364742 89 88 87 0.74 35 0 36 0 37 0 38 0 40 0 42 0 
984 -1.3025457202242368 -0.6185217600087444 0.08809352949945537 176 165 156 1.16 35 0 38 0 40 0 
985 0.10844218916489903 -0.7746541613719021 -0.002113653779567848 9 7 7 0.14 35 0 36 0 37 0 
986 -0.5564113055517788 -0.6681328770596149 0.06550895630322073 68 81 88 0.56 35 0 37 0 38 0 
987 0.02274262234836688 -0.7489974912232572 0.005655018991315153 38 30 27 0.6 35 0 36 0 37 0 40 0 42 0 44 0 
988 -0.9036322467891382 -0.6328433524762929 0.07582642208822343 148 142 138 0.63 35 0 37 0 40 0 
989 -0.46913724756282893 -0.6988163011180103 0.022048885832602227 71 82 93 0.52 35 0 36 0 37 0 38 0 40 0 
990 -0.589118294367208 -0.687491830898394 0.030322557324617305 123 139 153 0.46 35 0 36 0 37 0 38 0 40 0 42 0 44 0 45 0 
991 -0.5265305764583428 -0.6936934630977974 0.0265616301337096 119 133 145 0.64 23 0 35 0 36 0 37 0 38 0 40 0 42 0 44 0 45 0 
992 -0.9711224144098003 -0.623087509468962 0.07462621702146599 156 145 137 0.43 35 0 36 0 37 0 
993 -1.1053907453989202 -0.635536531509948 0.05352727342483199 89 112 134 0.71 35 0 36 0 38 0 42 0 
994 -1.136827731940043 -0.6324963514629784 0.056009210300600465 142 165 179 0.43 22 0 23 0 35 0 36 0 37 0 38 0 40 0 42 0 44 0 45 0 
995 -0.3958896458389226 -0.666122195217467 0.05544786462528828 51 45 47 0.28 35 0 38 0 42 0 
996 -0.7494966515538877 -0.6378346148868547 0.06631803153268745 103 98 95 0.61 35 0 36 0 37 0 38 0 40 0 42 0 44 0 
997 -1.0752041657385372 -0.6353210296711401 0.05178626428509081 141 163 177 0.21 22 0 35 0 36 0 37 0 38 0 40 0 42 0 44 0 45 0 
998 -0.8144700793730699 -0.6165172595495821 0.06618748514868278 94 82 78 0.61 35 0 36 0 40 0 42 0 44 0 
999 -1.2138308617782314 -0.5840879012445808 0.08272199392801816 83 70 67 0.72 22 0 23 0 35 0 37 0 38 0 40 0 
1000 -0.33446681899701614 -0.6497046107518847 0.050444352394070746 64 66 72 0.75 35 0 36 0 37 0 38 0 40 0 42 0 44 0 
1001 -0.3690240528088986 -0.6435228680291317 0.051020120800051805 38 36 41 0.54 35 0 36 0 37 0 38 0 40 0 
1002 -0.5565004745629082 -0.664372185665495 0.01013208194452575 79 92 104 0.69 35 0 36 0 37 0 38 0 
1003 -0.5879458109655327 -0.6564270526570896 0.019407283890232607 115 129 142 0.49 21 0 22 0 23 0 35 0 36 0 37 0 38 0 40 0 42 0 
1004 -1.1052782704102542 -0.6161295213817805 0.03449215531809713 161 193 218 0.54 35 0 36 0 37 0 38 0 
1005 -1.1948088961248005 -0.5937560685868951 0.05491508546225954 135 153 170 0.66 35 0 38 0 40 0 45 0 
1006 -1.3711522540340628 -0.5557212145211418 0.08799912545057209 125 111 107 0.66 35 0 37 0 38 0 40 0 42 0 44 0 45 0 
1007 -0.4976987191296818 -0.6674041768238882 0.0057492123574269804 70 85 100 0.3 35 0 36 0 37 0 
1008 -1.3305923546471259 -0.5522508865545538 0.08485723826699854 112 101 100 0.48 35 0 37 0 38 0 40 0 42 0 44 0 45 0 
1009 -0.46993222934878 -0.6563756178570486 0.015225757208510604 75 80 91 0.78 21 0 22 0 23 0 35 0 36 0 37 0 38 0 40 0 42 0 44 0 
1010 -1.291329985118902 -0.5439567764882033 0.07442919227743539 120 110 107 0.61 35 0 37 0 40 0 42 0 44 0 
1011 -1.2559098681294252 -0.537914345152237 0.07500906373385363 113 105 103 0.63 21 0 23 0 35 0 37 0 38 0 40 0 42 0 44 0 45 0 
1012 -0.03574344400390672 -0.6795113905311578 -0.01658698393444369 44 37 32 0.41 35 0 40 0 42 0 45 0 
1013 -0.499961145173214 -0.6520605992642402 -0.014186984944426495 86 108 119 0.96 35 0 37 0 38 0 
1014 -0.5870273269237462 -0.6266310352468062 0.007977488870334448 131 147 162 0.72 21 0 35 0 36 0 37 0 38 0 40 0 42 0 
1015 -0.9494408454226819 -0.5392936509476963 0.08448378183506766 147 135 123 0.39 35 0 36 0 37 0 38 0 
1016 -1.2028730588524985 -0.5240791567005251 0.08262938979326573 100 85 90 0.45 35 0 37 0 38 0 
1017 0.08316341819849746 -0.6807831695651854 -0.018192690067018735 36 29 25 0.63 35 0 36 0 37 0 40 0 42 0 44 0 45 0 
1018 -0.33809927172692666 -0.5834343800190688 0.061536653967670274 97 87 83 0.3 35 0 36 0 37 0 38 0 40 0 
1019 -0.5268849209451327 -0.6249772658262063 0.004939358667363392 141 158 173 0.43 35 0 37 0 38 0 40 0 42 0 45 0 
1020 -0.663224596073988 -0.582562071875965 0.040264297411573224 62 55 58 0.27 35 0 36 0 37 0 42 0 
1021 -1.4068374844329823 -0.5121448947546489 0.07872742402607336 151 144 143 0.3 35 0 37 0 38 0 40 0 42 0 44 0 45 0 
1022 -0.8883327233785805 -0.5526946725245787 0.05347613752685776 147 140 133 0.22 35 0 36 0 40 0 
1023 -1.0743985239771214 -0.567735819574701 0.03020875199123285 136 157 170 0.6 22 0 23 0 35 0 36 0 37 0 38 0 40 0 42 0 45 0 
1024 -0.9128083473320425 -0.5489601011730271 0.05223866589433768 159 145 136 0.59 35 0 36 0 37 0 38 0 40 0 42 0 
1025 -0.6624469355479272 -0.6039096116126473 -0.015441043782508324 130 128 132 0.26 35 0 36 0 37 0 
1026 -1.2402994641103862 -0.5108583826665611 0.06331896553400584 114 92 85 0.41 35 0 37 0 38 0 40 0 42 0 44 0 45 0 
1027 -1.343532087236414 -0.5006891286490617 0.06484229516007756 145 150 151 0.63 35 0 38 0 42 0 
1028 -1.4211998840825844 -0.4837381855681962 0.07312333165041629 128 116 111 0.43 35 0 38 0 40 0 42 0 44 0 45 0 
1029 -0.7062032816732562 -0.5366724211273497 0.03455877305802346 89 80 80 0.79 35 0 36 0 37 0 38 0 40 0 42 0 
1030 -0.9914571761790223 -0.5096785047167428 0.04350813758659999 56 44 47 0.45 35 0 37 0 42 0 
1031 -1.2925101857843373 -0.4790245362217385 0.06094210539388345 117 121 121 0.35 35 0 37 0 38 0 40 0 42 0 44 0 
1032 -1.4662016621846377 -0.472983845519716 0.062392474507624085 142 127 119 0.41 35 0 40 0 44 0 
1033 -0.9506777059046985 -0.5079379173686935 0.04682630528428189 71 75 80 0.72 35 0 36 0 37 0 38 0 40 0 42 0 44 0 
1034 -1.2751508202782353 -0.47704742682762696 0.05792441671300885 145 138 139 0.69 35 0 37 0 38 0 40 0 42 0 
1035 -0.03620212962083735 -0.6097076902473867 -0.03844276461136942 50 43 38 0.33 35 0 40 0 42 0 
1036 -0.5482390703436759 -0.5679885763007132 -0.023916144400538908 61 81 95 0.68 35 0 36 0 38 0 
1037 -0.966975433303574 -0.4860608066789783 0.042000586264919315 103 95 88 0.49 35 0 36 0 37 0 40 0 
1038 0.024873625180807934 -0.6100869589780533 -0.04186677709839148 45 39 34 0.31 21 0 35 0 36 0 37 0 40 0 44 0 
1039 -0.5254050939403873 -0.5534659200745112 -0.015121400309348276 152 169 184 0.39 35 0 36 0 37 0 38 0 
1040 -1.44379952201055 -0.44834084702034493 0.05995323616119541 95 84 83 0.53 35 0 37 0 38 0 40 0 42 0 44 0 45 0 
1041 0.08213132798311507 -0.6098861336642477 -0.04027401311880141 33 30 27 0.57 35 0 36 0 37 0 40 0 42 0 44 0 45 0 
1042 -0.24866752924846658 -0.15362082169305302 0.46046554955393404 155 163 170 0.56 35 0 36 0 37 0 38 0 42 0 
1043 -0.22555755590896642 -0.15921627018361686 0.4547418376965735 154 158 161 0.59 35 0 36 0 37 0 40 0 
1044 -1.0457152943888162 -0.514762200679428 -0.01783410422852094 61 74 91 0.54 35 0 36 0 38 0 40 0 
1045 -1.090943149236824 -0.4910232932982416 0.007010306712898151 69 68 70 0.19 35 0 36 0 38 0 
1046 -1.2761829865956635 -0.43975316094347405 0.04434211633902496 91 97 99 0.6 23 0 35 0 37 0 38 0 40 0 42 0 44 0 45 0 
1047 -0.8143193532673356 -0.470487497740603 0.022427098175107574 137 127 116 0.34 35 0 38 0 40 0 42 0 
1048 -1.2512688866999182 -0.43596720468030503 0.041166467283140884 69 71 75 0.45 35 0 37 0 38 0 40 0 42 0 44 0 
1049 -0.3672334063886522 -0.5038463956927917 0.0059961252919200625 45 41 41 0.23 35 0 36 0 37 0 38 0 42 0 
1050 -1.1663520592251386 -0.4758321513237617 -0.025565181287551253 69 104 126 0.83 35 0 37 0 38 0 40 0 42 0 
1051 -1.4633916146295198 -0.4050183676963008 0.04548499227512215 136 121 117 0.66 35 0 37 0 42 0 
1052 -1.0710707467808387 -0.4640712909719131 -0.01979017710490727 134 154 164 0.72 35 0 36 0 37 0 40 0 42 0 44 0 
1053 -0.6181616269025758 -0.5129365166219666 -0.051846150161847904 75 106 127 0.51 35 0 36 0 38 0 
1054 -1.0139722690406738 -0.4815524390488006 -0.038484360205003676 118 146 167 0.33 35 0 40 0 44 0 
1055 -1.314214261159814 -0.40569619071232843 0.03350619801763477 98 105 106 0.36 23 0 35 0 37 0 38 0 40 0 42 0 44 0 
1056 -1.4066005381677316 -0.4007134481634113 0.037161140746859944 111 94 87 1.01 35 0 37 0 38 0 40 0 42 0 44 0 45 0 
1057 -0.7394461402135792 -0.4525835796577154 0.0024821219703363706 111 105 102 0.65 35 0 36 0 37 0 38 0 40 0 
1058 -0.7596029307159038 -0.4415161251801509 0.012652420658249341 75 76 78 0.54 35 0 36 0 37 0 38 0 40 0 42 0 44 0 45 0 
1059 -1.341402860218487 -0.39987297244171666 0.035221935404382454 148 139 130 0.53 35 0 38 0 40 0 42 0 
1060 0.026967283589673152 -0.5462162088161979 -0.06980603790899176 55 51 46 0.44 35 0 36 0 37 0 40 0 42 0 44 0 45 0 
1061 -1.464154981803771 -0.3825817039874847 0.03785900775424422 106 85 77 0.3 35 0 37 0 38 0 40 0 42 0 
1062 0.10100687683411524 -0.5453905567029281 -0.06877397666057972 48 41 37 0.34 35 0 36 0 37 0 40 0 42 0 
1063 -0.7034439776272423 -0.43907417401237026 0.0015248495912900673 100 85 76 0.13 35 0 38 0 40 0 
1064 -0.6599665172901082 -0.43285030726198753 0.006197002282910091 62 59 60 0.76 35 0 36 0 37 0 
1065 -0.7872971522312735 -0.4263296027589627 0.003815985053839732 84 83 82 0.39 35 0 36 0 37 0 38 0 40 0 42 0 44 0 
1066 -1.0428918708860717 -0.4371679296224998 -0.030923091792458668 137 153 166 1.16 35 0 36 0 37 0 40 0 42 0 44 0 
1067 -0.3659244903082476 -0.4532517815854874 -0.010363766184588563 45 42 44 0.8 35 0 36 0 37 0 38 0 40 0 
1068 -0.7408194956451013 -0.4255055720529221 -0.00035817640413693397 104 95 90 0.64 35 0 36 0 37 0 38 0 40 0 42 0 
1069 -1.3732091493598428 -0.37119302632768214 0.02456445202425528 144 132 121 0.45 35 0 38 0 40 0 42 0 44 0 
1070 -1.2679444946390739 -0.37761475311919274 0.020296629210235673 109 90 84 0.45 35 0 37 0 38 0 40 0 42 0 44 0 45 0 
1071 -1.1113463393282133 -0.41826961397748746 -0.040156425568026455 124 149 164 0.62 35 0 36 0 38 0 
1072 -0.5854434535277477 -0.4518360505189325 -0.05772705587825633 125 138 150 0.61 21 0 22 0 23 0 35 0 36 0 37 0 38 0 40 0 42 0 44 0 45 0 
1073 -0.33629987957676677 -0.39877026855334946 0.008027043147481594 93 87 83 0.72 35 0 36 0 37 0 38 0 40 0 42 0 44 0 45 0 
1074 -0.2384196957432263 -0.06834203887398455 0.43486334324119347 151 158 163 0.35 35 0 36 0 37 0 38 0 40 0 
1075 -1.1331308512348148 -0.3892122436950193 -0.03844800493435874 156 174 186 0.38 35 0 36 0 37 0 40 0 42 0 44 0 45 0 
1076 -1.1652342789369563 -0.40116000835031945 -0.05351172439630458 91 124 142 0.87 35 0 37 0 40 0 
1077 0.11784116820784357 -0.47185787331170537 -0.06485526384921336 52 38 31 0.86 35 0 36 0 37 0 42 0 
1078 -0.1980215323524287 -0.07885508691661357 0.4176827762566335 159 160 158 0.67 35 0 36 0 37 0 
1079 -0.9294945638806082 -0.3751690069805467 -0.009922644053908636 84 79 82 0.61 35 0 36 0 37 0 40 0 42 0 
1080 -1.072076672716111 -0.3916928210870444 -0.04113406678243625 169 192 205 0.31 35 0 36 0 37 0 
1081 -0.3351010837258106 -0.39020595999982804 -0.003958842877959223 122 115 111 0.43 35 0 36 0 37 0 38 0 
1082 -0.8007732503265161 -0.38025344817988443 -0.022178784141786645 70 71 74 1.1 21 0 35 0 37 0 38 0 40 0 
1083 -0.7175645506063513 -0.3769545163704732 -0.018798975579799038 55 56 62 0.54 21 0 35 0 36 0 37 0 38 0 40 0 42 0 
1084 -1.200386888310241 -0.35001029072616613 -0.015580659226576032 132 136 140 0.34 35 0 40 0 42 0 
1085 -1.3560745765974678 -0.3248548618323187 0.010591581853869547 98 91 93 1.09 35 0 37 0 38 0 40 0 42 0 44 0 
1086 -1.4011865815057063 -0.32333832626411785 0.010894239634973713 95 89 88 0.88 23 0 35 0 37 0 38 0 40 0 42 0 44 0 
1087 0.0854859600263011 -0.47835642763538505 -0.10058982961273599 59 58 57 0.68 35 0 36 0 37 0 40 0 42 0 44 0 45 0 
1088 -0.3912139883215864 -0.40332176101602596 -0.037226400527379466 55 40 39 0.75 35 0 36 0 37 0 38 0 40 0 42 0 
1089 -1.3026676087812779 -0.32698419242499704 0.006443637331887464 86 85 90 0.44 21 0 22 0 23 0 35 0 37 0 38 0 40 0 42 0 44 0 45 0 
1090 -0.6809933520384157 -0.3659702587648925 -0.012453778536626992 120 115 111 0.34 35 0 36 0 37 0 38 0 
1091 -0.33531897227882823 -0.3699134904355057 -0.0014771094243959393 98 94 91 0.55 22 0 23 0 35 0 36 0 37 0 38 0 
1092 -0.44015835479052867 -0.3837663246644236 -0.03781114017729692 64 53 53 0.55 35 0 36 0 37 0 38 0 40 0 42 0 44 0 
1093 -0.5242892260469787 -0.41300343236284087 -0.07425048593939954 123 140 154 0.55 21 0 22 0 23 0 35 0 36 0 37 0 38 0 40 0 42 0 44 0 45 0 
1094 -1.0712930101199338 -0.3672099437503797 -0.0519583534770629 168 182 194 0.38 35 0 36 0 37 0 40 0 42 0 44 0 
1095 -0.4177792618200349 -0.3856196267122723 -0.0413931615771278 69 62 59 0.64 35 0 36 0 37 0 38 0 40 0 42 0 
1096 -0.9031391630227017 -0.34086019279673246 -0.018677812368819158 68 61 60 0.75 23 0 35 0 36 0 37 0 38 0 40 0 42 0 
1097 -1.2558664971529383 -0.31118557314746387 -0.004006843807975002 99 92 91 0.59 35 0 37 0 38 0 40 0 42 0 
1098 -0.3644104134492058 -0.3754886242224829 -0.036436442241647105 48 46 47 0.46 23 0 35 0 36 0 37 0 38 0 42 0 
1099 -0.8061546581353014 -0.3437615818132018 -0.02042335774080639 72 62 61 0.18 35 0 38 0 40 0 
1100 -0.7257820796927736 -0.3381973071857733 -0.022452248908265804 95 92 90 0.81 21 0 35 0 37 0 38 0 40 0 44 0 
1101 -1.0210502032556037 -0.307412766149261 -0.002080356511431347 67 69 91 0.28 35 0 36 0 37 0 38 0 
1102 -1.376117269243562 -0.28409724879010656 0.004059064564503334 128 120 118 0.64 35 0 37 0 38 0 42 0 
1103 -0.46424132691653963 -0.3922684396491689 -0.08768274584889346 95 101 110 0.39 35 0 36 0 37 0 38 0 40 0 42 0 44 0 45 0 
1104 -0.7847267167811804 -0.3310889418206339 -0.029009990871355695 77 72 71 0.5 35 0 36 0 38 0 40 0 44 0 
1105 -0.5517517332884333 -0.3750076394156928 -0.0940073134958006 72 80 105 0.69 35 0 38 0 40 0 
1106 -1.2004597652688387 -0.2799419395618053 -0.009183407310765501 30 26 30 0.36 35 0 37 0 38 0 40 0 42 0 
1107 -1.223640033771504 -0.28135441129171374 -0.013264287236471661 62 61 59 0.53 21 0 22 0 23 0 35 0 37 0 38 0 40 0 42 0 44 0 45 0 
1108 -0.4427118464945461 -0.3689522331093242 -0.08363795632118487 98 101 111 0.76 35 0 36 0 37 0 38 0 40 0 42 0 44 0 45 0 
1109 -0.5009712713233806 -0.3312551490175948 -0.039584177701499246 49 42 57 0.56 35 0 37 0 38 0 
1110 -1.084186733376841 -0.28430242818208495 -0.01570591784856956 30 22 21 0.84 35 0 36 0 40 0 42 0 44 0 
1111 -1.1133562087233901 -0.28584460861416056 -0.019096618291393863 28 19 17 0.94 35 0 36 0 37 0 38 0 40 0 42 0 44 0 45 0 
1112 -1.1649978332283466 -0.279958572147502 -0.011385808051330937 28 18 16 0.36 35 0 37 0 38 0 42 0 
1113 -1.185740262340439 -0.28116804739923823 -0.014555278893977341 40 27 22 0.58 35 0 38 0 40 0 
1114 -0.2013249382959017 -0.03582417496125989 0.3828403133337859 136 136 136 0.77 35 0 36 0 37 0 38 0 
1115 -0.6923069974874583 -0.3224580918866575 -0.04457801305105402 120 113 107 0.74 35 0 36 0 38 0 
1116 -1.0270549844021397 -0.28462098954735404 -0.01785638321993477 27 19 16 0.79 35 0 36 0 37 0 38 0 40 0 42 0 44 0 
1117 0.08738987845178631 -0.4160991723690077 -0.12720411005647714 53 54 56 0.39 35 0 36 0 37 0 40 0 42 0 44 0 45 0 
1118 -1.417026682514941 -0.25142869161241455 -0.009016447763586788 91 95 97 0.46 21 0 35 0 37 0 38 0 40 0 42 0 44 0 45 0 
1119 -0.3635231888113717 -0.3226488427112303 -0.057307189823966875 49 42 39 0.5 35 0 36 0 37 0 38 0 40 0 42 0 44 0 45 0 
1120 -0.6357940465372667 -0.3003088458734446 -0.040913920509282 41 32 30 0.74 35 0 36 0 37 0 38 0 42 0 
1121 0.14272961656347694 -0.36694681660906336 -0.08630220213180317 42 33 28 0.29 35 0 36 0 37 0 38 0 42 0 
1122 -0.5890788789208108 -0.3051784171679508 -0.054020299561610585 25 20 18 0.66 21 0 22 0 23 0 35 0 36 0 37 0 38 0 40 0 42 0 
1123 -1.1796248835917882 -0.25404943278121556 -0.022754804374726767 140 136 131 0.64 35 0 37 0 38 0 40 0 42 0 
1124 -0.25310549474237676 0.013258643057585808 0.4075750620083889 149 160 169 0.55 35 0 36 0 37 0 38 0 40 0 42 0 44 0 
1125 -1.460802285134702 -0.2299439504774905 -0.01367785900927787 106 84 81 0.7 35 0 37 0 38 0 40 0 44 0 
1126 -1.2946931117835745 -0.23206847435497313 -0.02293508524769583 126 123 123 0.66 35 0 37 0 38 0 40 0 42 0 44 0 
1127 -1.3769988988906412 -0.22893253898460308 -0.022144396662144628 80 75 75 0.83 35 0 37 0 38 0 40 0 45 0 
1128 -0.990783341011688 -0.2538389403071713 -0.038254435214164495 98 88 87 0.6 35 0 36 0 37 0 38 0 40 0 42 0 44 0 45 0 
1129 -0.17806715158764308 0.010790707785504085 0.3875729908400387 89 75 67 1.4 35 0 36 0 37 0 40 0 45 0 
1130 -1.4205482549964048 -0.21188119527297122 -0.017812309057380737 87 60 56 0.89 35 0 37 0 38 0 40 0 42 0 
1131 -1.4616391116021155 -0.20572979664501984 -0.019787088245642126 105 89 82 0.58 21 0 35 0 37 0 38 0 40 0 42 0 44 0 
1132 0.08931729159688814 -0.3710046396979469 -0.14961414730846312 26 19 16 0.3 35 0 36 0 37 0 
1133 -0.29132151678086016 -0.2716696758817085 -0.04402204578313729 49 42 40 0.62 35 0 36 0 37 0 38 0 40 0 44 0 45 0 
1134 -0.42262116226198476 -0.30298954731604394 -0.09766100786320431 80 74 67 0.21 35 0 36 0 37 0 
1135 -0.8526343710283559 -0.2494896124311648 -0.05252743350541056 87 80 78 0.42 35 0 36 0 37 0 38 0 40 0 42 0 44 0 
1136 -1.019884445289942 -0.23378216720908368 -0.039177703788179086 127 119 114 0.44 35 0 36 0 37 0 38 0 42 0 
1137 -0.36351445720217634 -0.2814644559515204 -0.07010485540031697 54 49 49 0.79 21 0 35 0 36 0 37 0 38 0 40 0 42 0 45 0 
1138 -0.6993893759559489 -0.2542395096670597 -0.06033950236470542 76 70 70 1.1 35 0 37 0 38 0 40 0 42 0 
1139 -1.1424386144788756 -0.21874510724070576 -0.041841303378819306 73 64 67 0.37 35 0 37 0 38 0 40 0 42 0 44 0 
1140 0.17722687075803611 -0.3182616297650069 -0.10746615491298472 58 54 51 0.45 21 0 23 0 35 0 36 0 37 0 38 0 
1141 -1.3579388349769674 -0.19099368470924172 -0.029597591957834513 131 124 118 0.38 35 0 38 0 40 0 42 0 44 0 
1142 0.10937189711987452 -0.3137738595606584 -0.10809520460951028 60 43 38 0.41 35 0 36 0 38 0 
1143 -0.45574554330587835 -0.25825247831032644 -0.07537474805445221 50 48 49 0.68 21 0 35 0 36 0 37 0 38 0 40 0 42 0 44 0 
1144 -0.7718737575104182 -0.2366052558061782 -0.06233149917528902 54 57 64 1.0 21 0 35 0 36 0 37 0 38 0 40 0 42 0 44 0 45 0 
1145 -0.2809086077931139 0.04068899942055408 0.3756902406411382 165 176 185 0.86 35 0 36 0 37 0 38 0 40 0 42 0 
1146 -1.44054808087472 -0.1874131115581042 -0.043328514628878434 83 76 75 0.29 35 0 37 0 38 0 
1147 -1.1606385568984732 -0.19769896406876636 -0.04702136822548186 72 62 64 0.6 21 0 23 0 35 0 37 0 38 0 40 0 44 0 45 0 
1148 0.037814242756558314 -0.29642629846249224 -0.11376971980580453 72 61 52 0.26 35 0 36 0 37 0 
1149 0.005592167424427363 -0.30086599371996253 -0.12249417497487225 71 58 49 0.41 35 0 36 0 37 0 
1150 -1.2756797954356611 -0.1875768871806643 -0.04594135959206436 121 112 109 0.94 35 0 37 0 40 0 45 0 
1151 -1.1914630808169604 -0.18244407574002997 -0.03903626017311579 117 114 111 1.12 21 0 35 0 37 0 38 0 40 0 42 0 
1152 -1.2157710304689162 -0.18327159134413518 -0.04479531330621234 141 132 127 0.57 35 0 37 0 38 0 40 0 45 0 
1153 -0.8603158593458051 -0.21302981084195066 -0.0660653333117398 129 122 118 0.71 35 0 36 0 37 0 38 0 40 0 42 0 44 0 
1154 -0.7430202706389195 -0.2213491244290749 -0.07728705836141214 104 98 96 0.46 35 0 37 0 38 0 40 0 
1155 -1.0636815391749759 -0.18717666740436478 -0.049897932849107596 121 109 102 0.18 35 0 38 0 40 0 
1156 -0.20879488507578636 -0.24371112513366133 -0.06044949655428178 44 43 44 1.1 23 0 36 0 37 0 38 0 42 0 
1157 -1.4018437067785923 -0.15644581901906135 -0.03890144306659471 87 76 77 0.69 22 0 23 0 35 0 37 0 38 0 40 0 42 0 44 0 45 0 
1158 -0.472471453219232 -0.22603450518636398 -0.08518064308587159 84 75 72 0.37 35 0 37 0 38 0 42 0 
1159 0.013358011119406876 -0.2672048403647731 -0.1151685604823538 45 42 39 0.51 35 0 36 0 37 0 40 0 42 0 45 0 
1160 -1.2424745758827491 -0.1602487181271922 -0.05160955484678886 71 74 78 0.63 23 0 35 0 37 0 38 0 40 0 42 0 44 0 45 0 
1161 -1.302468659155337 -0.15291117494476053 -0.048712675932219396 111 97 97 0.53 35 0 37 0 38 0 42 0 
1162 -1.3768120537385686 -0.14300102547369342 -0.04795352015963861 112 118 116 0.13 35 0 37 0 38 0 
1163 -0.3322398098763055 -0.19874812900413813 -0.061325636069098466 90 81 78 0.46 35 0 36 0 37 0 38 0 
1164 -0.7714436339926234 -0.20089166235544054 -0.09500894733786269 114 107 105 0.56 35 0 36 0 37 0 38 0 
1165 -0.3620563066083724 -0.21201911664661963 -0.08753190412352718 45 40 44 0.19 35 0 36 0 37 0 
1166 -0.8614409290204288 -0.17468465968615174 -0.07422119407747807 73 63 65 0.54 35 0 36 0 37 0 38 0 40 0 44 0 45 0 
1167 -0.628159214995319 -0.18980665748539224 -0.08776619042682543 66 63 68 0.52 35 0 37 0 38 0 
1168 -0.8973185780871562 -0.16685334773342428 -0.07480619749055584 101 93 88 0.85 23 0 35 0 36 0 37 0 38 0 40 0 42 0 45 0 
1169 -1.3674304779086237 -0.11821262947824834 -0.04801859431384181 95 91 89 0.73 35 0 37 0 38 0 40 0 
1170 -1.2407454108601066 -0.13140194217211382 -0.06219116205958186 98 87 86 0.66 35 0 38 0 40 0 42 0 44 0 
1171 -1.157913334573114 -0.1295521170473482 -0.0656185949433361 128 114 105 0.62 21 0 22 0 23 0 35 0 37 0 38 0 40 0 42 0 45 0 
1172 -0.6115744942264619 -0.17008831919121944 -0.09930963741384569 106 103 99 1.24 35 0 36 0 37 0 42 0 
1173 -0.29631121914329894 -0.18008833845350086 -0.09168589064822252 66 52 49 0.73 35 0 36 0 37 0 
1174 -0.3619647740466376 -0.1866457537084995 -0.10552585206861365 37 33 34 0.56 35 0 36 0 37 0 38 0 40 0 42 0 45 0 
1175 -1.0956367544370613 -0.1282022154092793 -0.0710194291867563 150 136 125 0.46 35 0 36 0 37 0 38 0 40 0 42 0 44 0 45 0 
1176 -0.9577840711218355 -0.138019385856888 -0.07835925588038128 125 111 101 0.66 35 0 36 0 37 0 38 0 40 0 42 0 44 0 45 0 
1177 -1.3159128289138344 -0.09448874620281394 -0.04122354686674701 97 86 88 0.89 35 0 38 0 40 0 
1178 -0.02190954939374007 -0.21228982809140662 -0.1299302450898111 41 38 37 0.49 35 0 40 0 42 0 45 0 
1179 -0.7419009153145839 -0.14914935868967266 -0.09152440314744315 100 95 91 0.46 35 0 36 0 37 0 38 0 40 0 44 0 
1180 -0.6991882877503937 -0.15143792665636466 -0.09528443880837922 93 84 83 0.24 35 0 36 0 37 0 38 0 40 0 44 0 
1181 0.8220635476959701 0.025509723755080493 0.29993900079945224 136 139 143 0.22 35 0 36 0 38 0 
1182 -0.6133954149128958 -0.15502595704980235 -0.10135469068181524 92 90 87 0.52 22 0 35 0 36 0 37 0 38 0 40 0 44 0 45 0 
1183 -0.6416569634223427 -0.15406507193588373 -0.1010759253334863 111 104 98 0.46 35 0 37 0 38 0 40 0 
1184 -0.6567488874742602 -0.1548322566662953 -0.09954479225141066 110 103 95 0.8 35 0 36 0 37 0 38 0 40 0 
1185 -0.9134682977519817 -0.13910856062380045 -0.09963572654523245 112 101 97 0.46 35 0 36 0 37 0 
1186 -1.170303559273354 -0.11025999492813038 -0.07681857063153796 142 127 117 0.39 35 0 37 0 38 0 40 0 42 0 
1187 0.06853738848489038 -0.2041163864999965 -0.13633823380555188 52 44 42 0.27 35 0 36 0 37 0 42 0 
1188 -0.47272250912584446 -0.16421038561562204 -0.11580568840644756 71 66 65 0.63 35 0 36 0 37 0 38 0 40 0 42 0 
1189 -1.4626975635939106 -0.08817165211112232 -0.06858248816745283 115 100 91 0.51 35 0 37 0 38 0 40 0 
1190 -0.3599484623485767 -0.1611459742120851 -0.11530394325273985 51 41 38 0.62 35 0 36 0 37 0 38 0 40 0 42 0 44 0 45 0 
1191 -1.0644583120059783 -0.10777709980648018 -0.08133383023028729 145 133 120 0.28 35 0 36 0 37 0 38 0 40 0 42 0 44 0 45 0 
1192 -1.0815937939269153 -0.10403006298850942 -0.07968467801851853 128 106 97 0.39 35 0 36 0 37 0 38 0 40 0 42 0 
1193 -1.1831341005730929 -0.09731608746626969 -0.07842370355155504 150 142 133 0.5 35 0 37 0 38 0 40 0 42 0 45 0 
1194 -1.034590929430629 -0.10379356623993771 -0.08298307008943184 111 94 85 0.9 35 0 36 0 37 0 38 0 40 0 42 0 44 0 45 0 
1195 -1.3101364241717737 -0.08162156156150929 -0.0738586329455222 108 107 108 0.51 35 0 37 0 38 0 40 0 42 0 44 0 45 0 
1196 -0.23020942377846343 0.13401753515672465 0.36651761421616214 160 169 177 0.44 35 0 36 0 38 0 
1197 -1.4574696414773827 -0.06763078544106282 -0.06378727385331107 82 58 51 0.3 35 0 38 0 42 0 
1198 -0.6663544699422717 -0.12421361706163689 -0.10640326560902269 90 69 67 0.63 21 0 35 0 36 0 37 0 38 0 40 0 42 0 44 0 45 0 
1199 -0.7549327587205028 -0.12308941911699517 -0.10908023584271498 89 85 84 0.9 21 0 35 0 37 0 38 0 
1200 0.07174434335648389 -0.17492254014902853 -0.1405521101607795 78 67 59 0.42 35 0 36 0 37 0 
1201 0.11267244042165575 -0.18663369601833785 -0.1610139801277516 82 64 56 0.69 35 0 36 0 37 0 
1202 -1.2063720801714723 -0.07245043522169925 -0.08548601019238466 79 75 73 0.7 21 0 22 0 23 0 35 0 37 0 38 0 40 0 42 0 44 0 45 0 
1203 -1.1502140099441702 -0.07695303850894492 -0.09099021513900418 93 71 66 0.93 35 0 37 0 38 0 40 0 42 0 44 0 45 0 
1204 -0.5464338437605178 -0.12593397853333782 -0.1277098930157483 89 81 82 0.36 21 0 35 0 36 0 38 0 40 0 
1205 -0.47385975171284966 -0.12369164929328777 -0.12471163213113334 76 57 56 0.6 35 0 36 0 37 0 38 0 40 0 42 0 45 0 
1206 -0.3586348399322101 -0.12716838877233583 -0.1282000916881939 44 39 39 0.61 35 0 36 0 37 0 38 0 40 0 45 0 
1207 -0.43865647888320847 -0.1276879156034421 -0.12880789788465763 62 53 53 0.27 35 0 36 0 37 0 38 0 40 0 42 0 
1208 0.8649348991367372 0.06435553521985635 0.2878680960540476 142 144 145 0.34 35 0 36 0 37 0 38 0 
1209 0.25972771239247455 -0.1722391837115925 -0.15481114444398458 51 40 34 0.56 35 0 36 0 37 0 38 0 
1210 -0.9822671187454179 -0.07928835879430948 -0.09890911081988174 42 32 33 0.89 23 0 35 0 36 0 37 0 38 0 40 0 42 0 44 0 
1211 0.81783641027627 0.0701502999280589 0.28805972987030315 128 132 138 0.45 35 0 36 0 37 0 38 0 40 0 42 0 45 0 
1212 -1.0647074801999934 -0.09411580642274112 -0.1438014281057428 20 15 15 0.45 35 0 36 0 37 0 40 0 42 0 
1213 -1.129794711874335 -0.08371794697653503 -0.12877281539357643 19 14 14 0.44 35 0 37 0 38 0 40 0 
1214 -0.3285911406271852 -0.11448312063314614 -0.11247898545134682 90 82 78 0.5 35 0 36 0 37 0 38 0 40 0 44 0 
1215 -0.3896985553912655 -0.11857242887276298 -0.1325923147460495 56 45 47 0.36 35 0 36 0 38 0 40 0 42 0 
1216 -0.6141609592647248 -0.09963090106652997 -0.12001476615750084 93 86 83 0.57 35 0 37 0 40 0 
1217 0.7962537341081461 0.05597437439428536 0.2535116231944652 124 125 128 0.76 35 0 36 0 37 0 38 0 40 0 42 0 45 0 
1218 1.0329251634891332 -0.2257037136903487 -0.20754318529334248 72 57 46 0.57 21 0 35 0 36 0 37 0 38 0 
1219 -0.5972878692153895 -0.09775721118447037 -0.11918775913411739 75 69 70 0.86 22 0 35 0 36 0 37 0 38 0 40 0 42 0 44 0 45 0 
1220 -1.3208472121413946 -0.043126582302925764 -0.08829123648392512 115 105 101 0.53 35 0 37 0 38 0 40 0 44 0 
1221 -0.5452169489483465 -0.09927402355869347 -0.12240418876501058 75 63 60 0.91 35 0 36 0 37 0 38 0 40 0 42 0 
1222 -1.2418622914677984 -0.04740280371411859 -0.09069744585448358 104 95 94 0.38 35 0 37 0 38 0 40 0 44 0 45 0 
1223 -1.271234936466747 -0.03885642720643212 -0.08139717026265003 93 84 84 0.41 21 0 22 0 23 0 35 0 37 0 38 0 
1224 0.8121309843445259 0.02721803160766793 0.20038068212015703 92 89 89 1.18 35 0 36 0 37 0 38 0 
1225 -0.52159566664824 -0.10631401524285408 -0.132505368133517 66 54 53 1.02 35 0 36 0 37 0 38 0 40 0 42 0 
1226 -1.2060076633306096 -0.04728137757296841 -0.0967546470500602 102 97 96 0.35 35 0 40 0 42 0 
1227 -1.1311902135013603 -0.0744311863926248 -0.14133321569405388 41 39 37 0.34 35 0 37 0 40 0 42 0 44 0 45 0 
1228 -1.1923128985129032 -0.06818878417494745 -0.1333780179047256 32 32 33 0.27 22 0 23 0 35 0 37 0 38 0 
1229 -1.032498738206349 -0.07444813110553244 -0.1389289006564267 49 44 44 0.27 35 0 36 0 40 0 
1230 0.3275242674482652 -0.15911281639410993 -0.17675350273528356 91 88 83 0.18 35 0 36 0 37 0 
1231 -0.924531883022844 -0.06071176685653304 -0.11162492978250871 90 84 83 0.77 35 0 36 0 37 0 42 0 
1232 -0.10400499598170027 -0.1204992774752307 -0.15624506405474792 26 15 12 0.3 35 0 40 0 42 0 44 0 45 0 
1233 0.06443370884212046 -0.14233476326870242 -0.1882953538286014 44 30 28 1.22 35 0 36 0 37 0 40 0 42 0 44 0 
1234 -0.7532758955561945 -0.060000180974118994 -0.11247185885607558 61 57 59 0.11 35 0 37 0 40 0 
1235 0.08112493963396838 -0.1334098141328698 -0.17440339118793413 46 31 27 0.26 35 0 36 0 37 0 
1236 -0.4044296519593725 -0.08733217414331297 -0.1385136678934794 55 47 46 0.75 35 0 36 0 38 0 40 0 42 0 44 0 
1237 0.7069320797405165 -0.17103533377573016 -0.20091390171253076 71 55 48 0.73 21 0 35 0 36 0 40 0 
1238 0.1101105591563718 -0.1323729138141238 -0.19134368161042659 14 11 9 1.04 35 0 36 0 37 0 42 0 
1239 -1.0386296542630153 -0.06837155552936358 -0.1842215535749019 61 77 83 1.73 35 0 36 0 38 0 
1240 -1.4549455388166583 0.01234191738222001 -0.08953695857298483 99 82 77 0.58 35 0 37 0 40 0 44 0 
1241 -0.030063800319174383 -0.12423644304572531 -0.2111890349250103 42 37 34 0.57 35 0 40 0 42 0 
1242 -0.43148576801829064 -0.06834787000442599 -0.14857287515962536 58 49 50 0.45 35 0 36 0 37 0 38 0 40 0 42 0 45 0 
1243 -1.0652730979111025 -0.04507493583654287 -0.15846816547094256 105 121 135 0.62 35 0 36 0 38 0 40 0 42 0 44 0 
1244 -1.3180660218522404 -0.003948766458060752 -0.10307153204661712 82 77 77 0.91 35 0 37 0 38 0 40 0 42 0 44 0 45 0 
1245 0.6543079532839994 -0.14608870404512792 -0.20573331008423834 19 16 16 0.33 35 0 40 0 42 0 45 0 
1246 0.0324107534055989 -0.12718274915368924 -0.21392890345459903 42 36 32 0.45 35 0 36 0 37 0 40 0 42 0 44 0 
1247 -0.35833166813850104 -0.06812546993502899 -0.1442508725303142 32 27 27 0.43 35 0 36 0 37 0 38 0 40 0 42 0 44 0 45 0 
1248 -1.2323364474352674 0.0018147349271037082 -0.10727136119390723 94 91 89 0.71 35 0 37 0 38 0 40 0 42 0 
1249 -0.2684529584813058 0.20478159322163325 0.3350696199983827 144 153 160 1.17 35 0 36 0 37 0 38 0 40 0 42 0 44 0 45 0 
1250 -0.5140804207650753 -0.06964894818843978 -0.19201684473052572 106 115 125 0.52 35 0 36 0 37 0 38 0 40 0 44 0 45 0 
1251 -0.5768323619064915 -0.06156433609046991 -0.19376787197013812 110 122 134 0.63 35 0 36 0 38 0 40 0 
1252 -0.6508492216054648 -0.03230779090486682 -0.1432462007968337 36 31 31 0.58 35 0 37 0 38 0 42 0 
1253 -0.9566371324064704 -0.0021921838328239386 -0.12425116454209029 80 68 65 0.78 35 0 36 0 37 0 38 0 40 0 44 0 45 0 
1254 1.007097169747038 -0.13937212222777104 -0.2358260386201032 38 33 29 1.29 22 0 35 0 36 0 37 0 38 0 
1255 -0.30068995105414686 -0.026582646448700276 -0.1391278971412364 88 83 78 0.46 35 0 36 0 37 0 38 0 
1256 -1.308439088227174 0.03657749817316336 -0.11501208183803191 85 70 68 0.89 35 0 37 0 38 0 40 0 42 0 45 0 
1257 -1.4554678108846715 0.0562869153199958 -0.10583537634621232 64 48 47 0.41 35 0 37 0 38 0 40 0 42 0 
1258 -1.381239692061923 0.05095219604038986 -0.11450688053638869 122 108 101 0.76 35 0 38 0 40 0 42 0 44 0 45 0 
1259 0.1191280459205058 -0.06357061251508261 -0.19901681558316786 81 76 73 0.52 35 0 37 0 42 0 
1260 0.2848877128144915 0.19019799279567817 0.2789108273520988 138 144 153 0.55 35 0 36 0 37 0 38 0 
1261 -0.2052028965824576 -0.011339081697799364 -0.13640465492755938 63 60 55 0.99 37 0 38 0 40 0 42 0 44 0 
1262 -0.8394576802205929 0.019934228523537375 -0.14106901458657228 54 53 58 0.42 35 0 36 0 37 0 38 0 40 0 42 0 44 0 45 0 
1263 -1.4563914680586716 0.06837962786629659 -0.1137314228492905 95 75 69 0.57 35 0 37 0 38 0 40 0 
1264 -1.3645855109090919 0.06522841567559545 -0.1155800090268645 108 90 89 0.52 35 0 37 0 38 0 40 0 42 0 44 0 45 0 
1265 0.8281637118720014 0.16602635307572217 0.25751878297085473 123 127 132 0.74 35 0 36 0 37 0 38 0 42 0 
1266 -1.127099603314011 0.024740928092704114 -0.17883756473879242 124 142 158 0.55 35 0 37 0 40 0 42 0 44 0 45 0 
1267 0.03446664897468499 -0.05857947460320444 -0.2393985450488868 87 92 99 0.39 21 0 35 0 36 0 37 0 40 0 42 0 44 0 45 0 
1268 -0.5369798932332086 -0.029180986868674045 -0.2376349878519004 56 71 76 1.01 35 0 36 0 37 0 38 0 40 0 44 0 
1269 -1.2031487372263177 0.05543917563612663 -0.13357718541119712 70 61 60 0.9 35 0 37 0 38 0 40 0 42 0 45 0 
1270 0.09638886624777426 -0.05894974498884749 -0.2390919822406088 74 81 92 0.52 35 0 36 0 37 0 40 0 42 0 44 0 45 0 
1271 -0.3583255385507731 0.0024098888367358844 -0.16701820756582964 41 36 34 0.56 35 0 36 0 40 0 42 0 44 0 45 0 
1272 -1.06394973470772 0.026568237316007905 -0.18319260163090378 159 175 189 0.52 35 0 36 0 38 0 42 0 
1273 0.26006184499298624 -0.04288446659846874 -0.20375413594872038 69 58 50 0.88 21 0 22 0 35 0 36 0 37 0 38 0 
1274 -0.9883627723415482 0.03653367233023258 -0.16915504497151868 48 43 51 0.28 35 0 36 0 37 0 
1275 0.19846814806109925 -0.030920318037339554 -0.1989621448862915 67 54 44 0.57 35 0 36 0 37 0 42 0 
1276 -0.5124658316797454 0.0011988672082195138 -0.21371748459534812 136 147 159 0.45 35 0 36 0 37 0 38 0 40 0 42 0 
1277 0.015139250333816134 -0.05535229544032552 -0.2835361546381566 82 98 100 0.4 35 0 36 0 40 0 
1278 -0.648344532154781 0.030377354565135874 -0.1729660273905993 43 40 42 0.53 35 0 38 0 40 0 
1279 -1.3568397074153071 0.08966137197631988 -0.12909684478995354 107 104 100 0.45 35 0 37 0 38 0 40 0 42 0 44 0 45 0 
1280 0.03918063287514667 -0.04248956739023124 -0.2625380109637838 118 124 131 0.28 35 0 36 0 37 0 
1281 -0.8432579469566726 0.05438818002599971 -0.15761973881765245 105 95 92 0.25 35 0 37 0 40 0 44 0 
1282 -0.30182180872962017 0.033414421205933645 -0.14907578747761652 94 84 77 0.57 35 0 36 0 37 0 38 0 40 0 
1283 -1.186166733459333 0.06608832107228219 -0.17601970762495933 125 131 138 0.3 22 0 23 0 35 0 37 0 38 0 
1284 -0.3578932746851303 0.026087218236821193 -0.18057779226586768 56 54 53 0.41 35 0 36 0 37 0 40 0 
1285 0.0998571112667479 -0.031510030346467224 -0.2647201294381296 56 69 79 0.49 35 0 37 0 40 0 
1286 -0.5108295514179724 0.015470456418089858 -0.21975076887421663 112 124 132 0.28 35 0 37 0 42 0 
1287 -1.4564397546803762 0.1171184621507449 -0.13113644710025107 71 54 51 0.31 35 0 37 0 38 0 
1288 0.40329124439921127 -0.033427374732799775 -0.2585252926063618 63 48 41 0.44 35 0 36 0 37 0 
1289 -0.3030010593461191 0.05627023208651641 -0.13644209941729024 93 79 74 0.9 35 0 36 0 37 0 40 0 42 0 
1290 -0.35722889681588343 0.03952389573617533 -0.18154653734760606 40 36 36 0.31 35 0 36 0 37 0 42 0 
1291 -0.5123183123418508 0.035075010222520686 -0.2171460202887009 144 157 172 0.34 35 0 36 0 37 0 
1292 -0.32422308376812536 0.05965169568945741 -0.15519200426410662 138 129 125 0.58 35 0 36 0 38 0 40 0 
1293 0.2568838005949083 0.21266911916608847 0.19708480014725804 43 52 61 0.33 35 0 36 0 37 0 38 0 
1294 -0.28987808581102137 0.2505792976368166 0.23372620061009686 92 93 96 1.1 35 0 37 0 38 0 42 0 
1295 -1.203423964126507 0.1113672781698968 -0.14995498469247015 80 76 75 0.78 21 0 22 0 35 0 37 0 38 0 40 0 42 0 44 0 45 0 
1296 -1.3784635501831424 0.12440800923259232 -0.13537664421553264 82 54 51 0.43 22 0 35 0 37 0 38 0 40 0 42 0 44 0 
1297 0.15511743287226437 0.012421873979403152 -0.2200304226987858 64 56 48 0.52 23 0 35 0 36 0 37 0 38 0 42 0 
1298 0.12091864792338011 0.010759206754686411 -0.22512993972344253 80 75 71 0.7 22 0 35 0 36 0 37 0 38 0 42 0 
1299 -0.5357327612263919 0.03180848490706753 -0.2563688144342291 51 67 73 0.62 35 0 36 0 37 0 40 0 42 0 45 0 
1300 -0.3241249669270738 0.07952390770456548 -0.16027206916358694 106 99 93 0.87 35 0 37 0 38 0 40 0 42 0 44 0 45 0 
1301 -0.8938701232228004 0.09721288822936833 -0.17651726366686127 91 86 89 0.44 35 0 37 0 38 0 
1302 -0.9215866896313332 0.10294306525198696 -0.16470926791907692 106 89 82 0.58 35 0 36 0 37 0 38 0 42 0 
1303 0.035413157299569564 0.013458787597788315 -0.26359880036326666 104 113 118 0.56 21 0 35 0 36 0 40 0 42 0 44 0 45 0 
1304 -1.070137986178409 0.07860677910480915 -0.2351940427145649 145 165 176 0.39 35 0 36 0 37 0 
1305 -0.3995861754722828 0.0630344230326652 -0.20873556616210587 83 73 75 1.54 21 0 35 0 36 0 38 0 40 0 
1306 -0.5101798682165989 0.055471950385852814 -0.23651741997872122 120 134 146 0.37 35 0 37 0 38 0 40 0 42 0 
1307 -0.5367928661870567 0.04709005775393488 -0.2583894917202113 68 88 95 0.6 35 0 36 0 37 0 38 0 40 0 
1308 -1.2027217736399027 0.1343921956925983 -0.15951469075245817 68 63 62 0.42 35 0 37 0 38 0 40 0 42 0 45 0 
1309 -1.3969154630983398 0.14987586651752002 -0.14574335282954587 75 74 73 0.41 35 0 40 0 44 0 
1310 -0.2993609060406742 0.09000633668195139 -0.16192517390307826 93 85 76 0.48 35 0 36 0 37 0 38 0 
1311 -1.2485542842999482 0.1423509818017102 -0.15407701716115763 101 85 81 0.84 35 0 38 0 40 0 45 0 
1312 -0.43207880097246376 0.0863957723760406 -0.19559886108544544 43 39 41 0.41 35 0 37 0 42 0 
1313 -0.5751441185577889 0.07024756402107518 -0.23615099027988262 101 116 130 0.83 22 0 23 0 35 0 36 0 37 0 38 0 40 0 42 0 
1314 -0.6510597283991187 0.10282901902851427 -0.1850917602182196 54 54 56 0.87 35 0 36 0 37 0 40 0 42 0 44 0 45 0 
1315 0.11943349196157416 0.048184932449543846 -0.23720561472568857 52 47 46 0.31 35 0 37 0 38 0 42 0 
1316 -1.3325428272429127 0.15972405309756063 -0.15198328546489914 112 101 97 0.6 35 0 40 0 42 0 44 0 45 0 
1317 -0.3838567781884442 0.07570370583304514 -0.2352020861156987 79 73 72 0.42 35 0 36 0 37 0 
1318 -1.2784352889491732 0.15800396007040798 -0.15635797021217135 128 105 101 0.41 35 0 37 0 38 0 40 0 
1319 -1.4542211623309234 0.17156302930318393 -0.1449801202505674 43 36 36 0.26 35 0 37 0 40 0 
1320 -0.3576041303987134 0.09535334067958055 -0.19996939473244346 60 56 55 0.72 35 0 36 0 37 0 38 0 40 0 
1321 -0.4314286487695297 0.10053255281184359 -0.1977840206737912 102 100 104 1.02 35 0 37 0 38 0 42 0 
1322 -0.5349529007163688 0.07458423135562539 -0.2672607951856527 34 48 53 0.42 35 0 36 0 37 0 38 0 40 0 42 0 44 0 
1323 -0.44941690243492294 0.07046356511579846 -0.26864015779345796 42 52 61 1.0 35 0 36 0 37 0 40 0 42 0 45 0 
1324 0.8286439419448379 0.25855440939171337 0.23464940268753676 123 125 129 0.94 35 0 36 0 37 0 38 0 40 0 
1325 -0.8727569474105143 0.13700862504041567 -0.18356861169899963 103 103 109 0.44 35 0 40 0 44 0 
1326 0.8067111556004796 0.25020493522033377 0.20955169705719046 130 130 133 0.5 35 0 36 0 40 0 42 0 
1327 0.19357826890968777 0.055359472034207144 -0.25284004094588663 70 62 55 0.77 35 0 36 0 37 0 38 0 
1328 -0.3003526836806262 0.11518205045379588 -0.17778631082126128 111 105 97 0.42 35 0 36 0 37 0 
1329 -0.4353540577063356 0.11308829582639293 -0.20278598189135255 74 72 79 0.92 35 0 37 0 38 0 40 0 
1330 0.017110931599670365 0.047775861598080865 -0.3133770708403796 40 55 59 0.83 35 0 36 0 40 0 42 0 
1331 -1.416164273697939 0.18970739899975103 -0.1573374583878937 112 108 106 0.41 35 0 37 0 38 0 40 0 42 0 44 0 45 0 
1332 -0.5379232447335693 0.0877254004641897 -0.28158419009929103 131 147 163 0.35 35 0 37 0 38 0 
1333 -1.2380015458175426 0.18110498304462241 -0.16654933849821596 62 49 50 0.4 35 0 37 0 38 0 40 0 42 0 44 0 45 0 
1334 -1.271638532743172 0.18414933206524453 -0.16643831448753743 126 114 108 0.32 35 0 38 0 42 0 
1335 -0.3234893873535708 0.13492594932234706 -0.17224655763951147 108 103 101 0.3 35 0 36 0 37 0 42 0 
1336 -0.3781955595757899 0.11929127606197136 -0.22114819628974203 80 69 68 0.57 35 0 37 0 38 0 42 0 
1337 1.5911572485910435 -0.04533432600346521 -0.4236480098897487 115 129 136 0.51 21 0 22 0 36 0 
1338 0.3420808733684551 0.07783290776953115 -0.258843063495389 79 65 57 0.7 22 0 23 0 35 0 37 0 38 0 
1339 -1.419625175086803 0.206488952688718 -0.1619638671236613 87 74 70 0.65 35 0 37 0 38 0 40 0 42 0 44 0 
1340 0.03508246338244386 0.0806282889908876 -0.28956289533295443 110 119 127 0.32 21 0 35 0 36 0 37 0 40 0 42 0 44 0 45 0 
1341 -1.2925961765942318 0.19940205914103956 -0.17024434186628157 107 98 95 0.35 35 0 37 0 38 0 40 0 42 0 44 0 45 0 
1342 -0.3230539687587225 0.14606471679712177 -0.17977866829768108 124 121 116 0.33 35 0 36 0 37 0 38 0 
1343 -0.5343710868827631 0.11664792100127497 -0.28194205984233456 33 40 41 0.59 35 0 37 0 38 0 40 0 42 0 
1344 -1.125595382546204 0.16574004064484765 -0.2355057410487702 125 135 146 0.61 35 0 37 0 38 0 40 0 42 0 44 0 45 0 
1345 -0.509550601847728 0.12233748702005212 -0.27266799152292887 105 118 131 0.62 35 0 36 0 37 0 38 0 40 0 42 0 44 0 45 0 
1346 -0.4497419069772216 0.11934520613390798 -0.27762942272536817 26 31 43 0.45 35 0 36 0 37 0 38 0 
1347 -0.2966121124248793 0.1534188861176625 -0.19179261606460962 70 53 50 0.45 35 0 36 0 37 0 38 0 
1348 -0.9778025219475244 0.18920397890325674 -0.18929005873738236 67 56 55 0.65 35 0 37 0 40 0 42 0 44 0 
1349 1.047294147766514 0.037462823817222046 -0.3517168526184712 148 149 150 0.29 35 0 36 0 37 0 
1350 -0.32247995830052667 0.15803254193662108 -0.18255425715747886 88 77 74 0.59 35 0 36 0 37 0 38 0 40 0 42 0 44 0 
1351 -0.35610084694844824 0.1487582627718071 -0.2191502211922075 40 35 35 0.54 35 0 37 0 38 0 40 0 45 0 
1352 -0.5735280643738276 0.13117882385858662 -0.27424729325698416 91 105 116 0.74 35 0 37 0 40 0 42 0 
1353 -1.2887467249147728 0.2155179008911003 -0.17159140104529136 100 84 82 0.6 35 0 37 0 40 0 42 0 44 0 
1354 0.3423043733479374 0.3215837932550111 0.23352990779163574 110 110 109 1.41 35 0 36 0 37 0 38 0 40 0 42 0 45 0 
1355 -1.3761198910754975 0.2246930605658269 -0.1721672613986419 51 55 58 0.68 21 0 22 0 23 0 35 0 37 0 38 0 40 0 44 0 45 0 
1356 -0.5091488007538785 0.13674985640783202 -0.2758415907267776 108 122 134 0.68 35 0 36 0 37 0 38 0 40 0 42 0 44 0 45 0 
1357 -0.53432888810164 0.13303006783016927 -0.28520676875268647 54 67 69 0.43 35 0 37 0 42 0 
1358 0.25232813053156544 0.1153579529608125 -0.2586318340737772 72 54 48 0.35 21 0 35 0 36 0 37 0 38 0 
1359 -0.3562704597171772 0.1626579001206981 -0.22315151361730035 43 38 39 0.63 35 0 37 0 38 0 40 0 44 0 
1360 -0.8510143809744002 0.19763922802852205 -0.20075953230400967 101 90 87 0.46 35 0 36 0 37 0 38 0 40 0 42 0 
1361 -0.3002076533394412 0.17494785324372664 -0.19405212212783174 89 84 79 0.52 35 0 36 0 37 0 38 0 40 0 
1362 -1.1852663812288924 0.19931334771543044 -0.23980893199705355 138 144 149 0.25 22 0 23 0 35 0 37 0 38 0 
1363 0.03771916744289355 0.11354932086975547 -0.31255295285347895 107 116 123 0.47 35 0 37 0 40 0 42 0 44 0 
1364 -0.5337309153373414 0.1468258602814685 -0.2906564968379046 40 49 53 0.35 35 0 36 0 37 0 38 0 40 0 42 0 44 0 45 0 
1365 -0.8174263137895834 0.19518580576026165 -0.2104927312065188 75 73 72 0.49 35 0 36 0 37 0 38 0 40 0 42 0 
1366 -0.4340120812930358 0.1376716066050321 -0.3063163145107156 126 135 147 0.42 35 0 36 0 37 0 
1367 -0.44808446883603636 0.14643181307024136 -0.28895301274986385 72 83 95 0.28 35 0 36 0 37 0 38 0 40 0 42 0 
1368 -0.5091951885847735 0.15181507854541418 -0.27984041166837736 122 138 150 0.21 35 0 36 0 37 0 38 0 40 0 44 0 
1369 0.8163084333570668 0.27241155338257456 0.11182604101962501 81 74 67 0.66 35 0 36 0 37 0 38 0 40 0 42 0 45 0 
1370 -1.4512129930816535 0.2570316300924772 -0.17601460242542266 73 56 56 0.96 35 0 37 0 38 0 40 0 42 0 44 0 45 0 
1371 -0.2977556420294243 0.18371587339797912 -0.2052569701207767 105 91 87 0.31 35 0 36 0 37 0 
1372 -0.35801040930442307 0.17877065201307202 -0.22591866574505082 54 51 52 0.52 35 0 37 0 38 0 40 0 42 0 
1373 -0.6029924778760215 0.16296868524395766 -0.29749395339493045 100 121 133 0.21 35 0 37 0 38 0 
1374 -0.7386993150761596 0.20369180704691056 -0.2164308034543403 85 78 77 0.29 35 0 36 0 37 0 38 0 40 0 
1375 0.054060626436070625 0.10385664710579201 -0.3805442301281543 90 104 108 0.83 35 0 36 0 40 0 
1376 -0.7677235498890684 0.21382108460460125 -0.2011887742022027 120 116 116 1.09 35 0 36 0 37 0 38 0 42 0 
1377 0.3965468517776821 0.1384192977673097 -0.2903110179900009 106 92 84 0.2 35 0 37 0 38 0 
1378 -0.3559292429398312 0.18780532872574518 -0.24119262222172766 61 59 58 0.21 35 0 37 0 38 0 
1379 -0.8357101557870124 0.22270338690014138 -0.21198165048620754 102 93 94 0.35 35 0 36 0 37 0 38 0 40 0 42 0 
1380 -1.199282272972775 0.2504014295026646 -0.1974301378317348 59 44 45 0.89 35 0 37 0 38 0 40 0 42 0 44 0 
1381 -1.2475896489489722 0.25737454936958803 -0.18933327995571436 96 72 69 0.52 35 0 37 0 38 0 40 0 
1382 -0.022911788579694448 0.14494118160490113 -0.32641671268559735 89 92 97 0.36 35 0 40 0 42 0 
1383 -0.44859790137325084 0.1760496128314867 -0.2951502145260968 42 46 57 0.34 35 0 36 0 37 0 40 0 
1384 -0.5342959160896619 0.17667716271367792 -0.3018041546856125 53 66 69 0.39 35 0 36 0 37 0 38 0 40 0 42 0 
1385 -1.1881898626974563 0.22650665612533452 -0.2632867945610874 98 118 123 0.4 35 0 37 0 38 0 
1386 -1.123205412755938 0.23000738382053124 -0.25720187184546284 130 149 160 0.43 22 0 35 0 37 0 38 0 42 0 
1387 -1.0593750042146886 0.22473363052152906 -0.26103294217168427 133 150 167 0.53 35 0 37 0 38 0 40 0 42 0 44 0 45 0 
1388 -0.35558532640033413 0.20148991544050832 -0.23948370697591814 49 44 42 0.74 35 0 36 0 37 0 38 0 40 0 42 0 45 0 
1389 -1.3162069141692394 0.2712533369691354 -0.1918866951647945 111 110 109 0.37 35 0 37 0 40 0 44 0 
