# 3D point list with one line of data per point:
#   POINT3D_ID, X, Y, Z, R, G, B, ERROR, TRACK[] as (IMAGE_ID, POINT2D_IDX)
# Number of points: 448, mean track length: 4.98
1607 -0.8923259649588227 -0.1632054270807734 -0.0034912882238586906 131 128 129 0.55 53 0 54 0 57 0 
1608 -0.4157331080039838 -0.127004262025867 0.002181411613446649 142 136 127 0.39 53 0 54 0 57 0 58 0 59 0 
1609 0.2458024260160302 -0.0744187541761896 -0.0034869845232308183 142 136 139 0.51 53 0 54 0 57 0 58 0 59 0 63 0 65 0 
1610 1.2132055626245897 0.001597808501788256 -0.006560884826341207 92 94 100 0.26 53 0 57 0 58 0 
1611 0.9730135214509161 -0.01889761533552259 -0.011000409215413232 160 153 146 0.53 53 0 54 0 57 0 58 0 59 0 63 0 64 0 65 0 
1612 1.2470285551907208 -0.0026173412188300604 -0.008448911215522825 138 129 130 0.57 53 0 57 0 58 0 59 0 63 0 64 0 
1613 0.41512894740040496 -0.06950459786253171 -0.009759034469814631 150 146 148 0.83 53 0 54 0 63 0 64 0 65 0 
1614 0.18830113139357563 -0.08884217158273477 -0.0057510262533471135 146 143 146 0.55 53 0 57 0 58 0 59 0 
1615 -0.954151874350343 -0.1802896122247779 -0.00023505931636891297 137 128 129 0.7 53 0 54 0 57 0 
1616 -0.457348149455293 -0.14152648058867107 0.00035245957289031793 141 140 146 0.31 53 0 57 0 59 0 
1617 0.7031509696060649 -0.049418240530822444 -0.01861862840816708 44 39 44 1.31 53 0 54 0 57 0 58 0 59 0 63 0 64 0 65 0 
1618 0.2755014107417557 -0.08807834456948033 -0.007205689963840856 144 138 143 0.34 53 0 57 0 58 0 
1619 1.397436111607873 -0.0012809126560819895 -0.017101493711142446 124 125 130 0.59 53 0 54 0 57 0 65 0 
1620 -0.014742943376292894 -0.11414129893123776 -0.004904428680656325 123 109 116 0.51 53 0 54 0 57 0 63 0 
1621 0.4579677217739463 -0.08243361474069699 -0.021963466679252752 161 158 160 0.56 53 0 54 0 57 0 59 0 
1622 0.10148614802328382 -0.11786084549977954 -0.005970450329940924 118 108 106 0.43 53 0 54 0 57 0 58 0 
1623 0.06805945783448908 -0.12428983476443561 -0.0005793516042491564 70 68 76 0.37 53 0 63 0 64 0 
1624 0.4152345735998496 -0.09899920207310453 -0.01002617113528248 119 105 108 0.82 53 0 54 0 57 0 58 0 59 0 63 0 
1625 0.7159562416655654 -0.08166868456248555 -0.028777433544338482 41 28 30 0.45 53 0 64 0 65 0 
1626 0.3314932222549818 -0.12027169280348393 0.0012374808005135574 121 105 106 0.25 53 0 54 0 63 0 
1627 0.007838596826301503 -0.14961031011740322 -0.002213672603740724 124 113 107 0.43 53 0 54 0 57 0 58 0 59 0 
1628 -0.45910244844119225 -0.1846169163630933 -0.0038677234257322723 129 127 129 1.01 53 0 54 0 57 0 58 0 59 0 
1629 -0.4162544787714414 -0.18225828391435872 -0.0015176795541556043 118 112 108 0.72 53 0 54 0 57 0 58 0 59 0 
1630 -0.16794155494715546 -0.16379128317489072 -0.02135691172265597 55 37 43 0.41 53 0 63 0 65 0 
1631 -1.0424961743244823 -0.22516854902860972 0.0009440062684669126 110 98 98 1.18 53 0 54 0 57 0 58 0 
1632 0.28408717712554177 -0.143574931868082 -0.004761782514450141 121 110 111 0.74 53 0 57 0 58 0 59 0 63 0 
1633 -0.8980095516185105 -0.21884849097377296 -0.013941930798220925 109 98 101 0.71 53 0 54 0 57 0 
1634 0.37318256786276205 -0.14531889045818974 -0.008481473013512986 108 94 97 0.86 53 0 54 0 57 0 58 0 59 0 
1635 0.21002267846818712 -0.160459014196499 -0.009524489709519246 156 147 147 0.33 53 0 54 0 57 0 58 0 
1636 0.198157901698233 -0.1613320980712119 -0.013347363069024176 139 130 132 0.25 53 0 57 0 64 0 
1637 0.37802929748474734 -0.1604028229536214 -0.010325783823320833 113 93 95 0.72 53 0 57 0 63 0 64 0 65 0 
1638 -0.44771616413296805 -0.2122215201693623 -0.004014970474187418 76 68 71 0.78 53 0 54 0 57 0 58 0 59 0 64 0 
1639 -0.04206283231609087 -0.19811520152684814 -0.015852310966741 64 45 52 0.21 53 0 54 0 57 0 
1640 0.1438809262858719 -0.1900422796429873 -0.0067619199245261274 107 93 91 0.5 53 0 54 0 57 0 58 0 59 0 65 0 
1641 0.25890761279790364 -0.18909537789971492 -0.006470317254685165 142 130 129 0.26 53 0 57 0 58 0 
1642 0.3467278614693726 -0.18570333694851282 -0.010634300226217253 115 101 102 0.94 53 0 57 0 58 0 59 0 63 0 64 0 
1643 0.35754368027262284 -0.18664096129560775 -0.012340790283807301 136 122 121 1.0 53 0 54 0 63 0 
1644 0.3979543529546571 -0.1860351183831468 -0.00949335786557537 110 99 98 0.32 53 0 54 0 57 0 58 0 59 0 63 0 64 0 65 0 
1645 -0.41531700690391327 -0.22893475281479164 -0.0021067470414894984 132 130 125 0.23 53 0 54 0 57 0 58 0 59 0 
1646 0.0093816506967071 -0.20801574030025882 -0.00566444956642953 131 121 115 0.54 53 0 54 0 57 0 58 0 59 0 63 0 
1647 0.18740372992612264 -0.20655982819536478 0.0011430386425153038 132 121 120 0.67 53 0 54 0 57 0 59 0 
1648 0.20967447657676352 -0.20205388438276667 -0.010852794544060851 111 98 99 0.2 53 0 57 0 59 0 
1649 0.24028401750070438 -0.20524818090935265 -0.0005518649111937446 137 130 133 0.67 53 0 54 0 57 0 64 0 
1650 0.41000470732308514 -0.20083207164901085 -0.00780832018108768 111 96 96 0.88 53 0 54 0 57 0 58 0 59 0 63 0 64 0 65 0 
1651 -0.43698549528121644 -0.2421929296183301 -0.002245420600875958 133 129 129 0.39 53 0 54 0 57 0 58 0 59 0 63 0 
1652 0.023410856424681326 -0.22313907513363979 -0.00607374774958469 127 118 114 0.52 53 0 57 0 58 0 59 0 
1653 -0.39247042914430363 -0.2421738651427257 -0.007225445891328119 54 51 57 0.43 53 0 54 0 57 0 58 0 59 0 63 0 65 0 
1654 0.009760024993152039 -0.23526736753610217 -0.007701741676605867 115 94 93 0.8 53 0 54 0 57 0 58 0 59 0 63 0 
1655 0.49649826304251166 -0.21437387528465357 -0.015837859679216137 152 142 141 1.22 53 0 57 0 58 0 59 0 63 0 64 0 65 0 
1656 -0.41453613010508716 -0.2563750660501405 -0.0033817785288665636 95 83 79 0.26 53 0 54 0 57 0 58 0 59 0 
1657 -0.4342580349362374 -0.2591842618913369 -0.0008285014937408075 109 99 97 0.49 53 0 54 0 57 0 58 0 
1658 -0.39219031239513497 -0.2602440386337239 -0.003068300407279123 53 47 53 0.49 53 0 57 0 58 0 63 0 
1659 0.5770498308925935 -0.2282594048026686 -0.010650709608654108 69 56 58 0.22 53 0 63 0 65 0 
1660 0.38693746410243235 -0.24501006880545062 -0.009202320135778264 135 127 127 0.93 53 0 54 0 63 0 64 0 65 0 
1661 0.48565012877012304 -0.24177638378099703 -0.012436725131137916 134 118 118 0.48 53 0 54 0 57 0 58 0 59 0 63 0 64 0 
1662 0.3106658777812088 -0.2609251116858034 -0.009320599111884764 122 116 115 0.72 53 0 54 0 57 0 58 0 59 0 63 0 64 0 
1663 0.3428370938991616 -0.25960600668709627 -0.007977749079403296 122 117 118 0.59 53 0 54 0 57 0 59 0 63 0 64 0 
1664 -0.41210742066542705 -0.2875351346783651 -0.0045045775423186996 103 102 99 0.24 53 0 54 0 57 0 
1665 -0.9810915284108 -0.3112380117030479 0.004629683847404253 110 98 97 0.74 53 0 54 0 57 0 58 0 
1666 -0.03929869620273391 -0.2761386951148723 -0.027175481945452606 32 21 26 0.45 53 0 54 0 57 0 58 0 65 0 
1667 1.2547259046536976 -0.24686733488627183 -0.018260916212502698 84 83 86 0.92 53 0 54 0 57 0 58 0 59 0 
1668 0.45656873007030174 -0.27321676473879586 -0.014875949604407523 132 123 125 0.99 53 0 57 0 63 0 64 0 65 0 
1669 1.1798441720076072 -0.26065841164490455 -0.020667249618690597 138 122 115 0.71 53 0 57 0 58 0 59 0 
1670 -0.39207516194306563 -0.3000391152115317 -0.008522263722203771 69 68 72 0.72 53 0 54 0 57 0 58 0 59 0 64 0 
1671 0.13978321401150662 -0.2908657750965102 -0.00945952134844541 113 105 104 0.44 53 0 54 0 57 0 59 0 
1672 0.0756998776625682 -0.29428041364149415 -0.010755155763657598 135 132 134 1.08 53 0 54 0 57 0 59 0 63 0 65 0 
1673 0.27618370493257316 -0.29096958552270896 -0.005510066863065433 107 96 97 0.55 53 0 57 0 58 0 
1674 0.5345482844227962 -0.28538238786457903 -0.014381067711670026 124 115 112 0.5 53 0 54 0 57 0 58 0 59 0 63 0 64 0 65 0 
1675 0.07131707490205036 -0.3067217473196631 -0.01319559427651984 123 117 119 0.41 53 0 54 0 57 0 58 0 59 0 64 0 
1676 0.04896389550530389 -0.30741078109872133 -0.016564360239738507 107 100 101 0.67 53 0 54 0 57 0 
1677 0.200229705940684 -0.30665963132740964 -0.012646994971005965 156 154 151 0.5 53 0 54 0 57 0 58 0 59 0 63 0 
1678 0.5770220988838097 -0.2983255858847884 -0.01620446007964449 77 59 59 0.68 53 0 54 0 57 0 58 0 59 0 63 0 64 0 65 0 
1679 0.3175502492856741 -0.30684458743048737 -0.009942683206550562 158 146 145 0.97 53 0 63 0 64 0 
1680 -1.0183515741109943 -0.342723282508663 -0.002292612363954394 149 138 137 0.79 53 0 54 0 57 0 58 0 
1681 0.5497886668674018 -0.3127746429047089 -0.01644545161595401 128 121 120 0.58 53 0 54 0 57 0 59 0 63 0 64 0 65 0 
1682 0.2134726433191928 -0.3198153958218129 -0.012937603454018953 132 124 126 0.53 53 0 54 0 57 0 63 0 64 0 
1683 0.9594455214572828 -0.3083784263129433 -0.023768045006108185 98 88 95 0.26 53 0 57 0 58 0 59 0 63 0 65 0 
1684 0.24655829355097159 -0.33270075379490766 -0.013619419171217118 110 100 102 0.61 53 0 54 0 57 0 58 0 59 0 63 0 64 0 65 0 
1685 0.11104086818641934 -0.3346945231952791 -0.012115281485177931 151 148 145 0.35 53 0 57 0 58 0 
1686 0.17669032782579963 -0.33356017393407855 -0.0171162387780579 122 115 115 0.1 53 0 54 0 65 0 
1687 0.5508141465963561 -0.33125325592667143 -0.017275825331398487 138 130 123 0.65 53 0 57 0 58 0 63 0 65 0 
1688 0.08583928792478734 -0.3374588641471776 -0.012240482985536039 114 104 103 0.25 53 0 54 0 57 0 58 0 
1689 0.13591940066319397 -0.33734168734435416 -0.011335976348814558 119 109 109 0.38 53 0 54 0 57 0 58 0 59 0 63 0 64 0 65 0 
1690 0.576964147538138 -0.33749420331620167 -0.01906875616135606 99 79 74 0.56 53 0 57 0 65 0 
1691 1.1803682997511458 -0.34212212446672985 -0.020809606910321854 92 97 94 0.44 53 0 57 0 58 0 59 0 
1692 0.3892249101733658 -0.3479340348475475 -0.016707013043694374 115 94 90 0.73 53 0 54 0 57 0 59 0 63 0 65 0 
1693 0.05757064669657902 -0.3528020221915133 -0.013395787116619928 102 94 93 1.42 53 0 57 0 58 0 59 0 65 0 
1694 -0.9814203368333035 -0.3700805906489785 0.006583720322701714 130 123 122 1.16 53 0 54 0 57 0 
1695 -0.39189177275216963 -0.35900640824461216 -0.010357655416285638 72 71 73 0.32 53 0 54 0 57 0 58 0 59 0 63 0 64 0 65 0 
1696 0.9947253648350172 -0.3525988631257723 -0.02400649836969948 128 117 115 0.35 53 0 64 0 65 0 
1697 -1.016012704071675 -0.37121153661403095 -0.030201318128580956 145 140 141 0.94 53 0 54 0 57 0 
1698 0.35481802570369325 -0.3613127679846774 -0.014174872735817079 155 152 147 0.32 53 0 57 0 58 0 64 0 
1699 0.3900478205640313 -0.36061132194358775 -0.017839824288648387 126 117 112 0.31 53 0 57 0 59 0 
1700 0.2195044458670845 -0.366395199025166 -0.018974545839822277 171 165 165 0.91 53 0 54 0 57 0 59 0 
1701 0.25735763500239583 -0.36891078056860405 -0.013288238200408031 110 92 91 0.48 53 0 57 0 63 0 
1702 0.07221216158685112 -0.3807622333755274 -0.012392069040359832 89 82 82 0.5 53 0 57 0 58 0 59 0 65 0 
1703 0.552758623681142 -0.38486167399939747 -0.018747691930164123 92 77 75 0.54 53 0 54 0 57 0 58 0 59 0 64 0 65 0 
1704 -0.36244045313355716 -0.3841977355809864 -0.027002123938737466 39 24 28 0.41 53 0 54 0 57 0 58 0 59 0 63 0 64 0 65 0 
1705 0.14994466073678003 -0.3915037124509851 -0.0025838147173153914 143 137 137 0.73 53 0 57 0 58 0 
1706 0.4993812176453829 -0.3896715733370837 -0.019215009621077916 112 102 102 0.96 53 0 54 0 57 0 58 0 59 0 63 0 64 0 65 0 
1707 1.0849348781231103 -0.41108284269847783 -0.020029144148233646 70 60 50 0.3 53 0 57 0 58 0 59 0 63 0 64 0 65 0 
1708 0.07519122888545682 -0.40925257793039893 -0.01546794774610949 117 108 104 0.48 53 0 54 0 57 0 58 0 59 0 64 0 
1709 0.013143128819273764 -0.41159688631213426 -0.012793188616136542 133 124 117 0.37 53 0 54 0 57 0 58 0 59 0 
1710 1.0994188413005486 -0.4356614734646194 -0.037483510374368034 98 87 80 0.29 53 0 63 0 64 0 
1711 0.1907008279561051 -0.42560019329289506 -0.015180514648156729 106 82 79 0.31 53 0 57 0 59 0 63 0 
1712 -0.3259722004603724 -0.42077536287162187 -0.030195089811374975 51 33 38 0.48 53 0 57 0 58 0 63 0 64 0 65 0 
1713 0.9601357036748364 -0.45425987415818947 -0.03579282659767169 76 64 67 0.45 53 0 63 0 65 0 
1714 0.5498441896283888 -0.4477163411754299 -0.022328813010122017 134 121 112 0.68 53 0 54 0 57 0 58 0 63 0 64 0 65 0 
1715 1.0628341222922717 -0.46574972679886983 -0.02782653745636754 90 80 78 0.42 53 0 57 0 58 0 59 0 63 0 64 0 65 0 
1716 0.9613847831994642 -0.4672713673011653 -0.034220171828614365 76 71 77 0.62 53 0 54 0 57 0 58 0 59 0 63 0 64 0 65 0 
1717 1.1083165953981877 -0.4803743115343641 -0.02682246121758669 129 122 122 0.51 53 0 54 0 57 0 58 0 63 0 64 0 
1718 0.5055105461818138 -0.47389575542811435 -0.021034785128152045 86 81 82 0.62 53 0 57 0 58 0 65 0 
1719 0.15653078917012986 -0.4683394743257549 -0.01811972730712408 133 128 127 0.78 53 0 54 0 57 0 58 0 59 0 64 0 
1720 1.13891590619811 -0.49747293808034876 -0.03249180052015954 114 108 105 1.75 53 0 54 0 57 0 58 0 59 0 63 0 
1721 0.05709234094862159 -0.4678662622905818 -0.017632539837193262 129 120 122 0.43 53 0 54 0 63 0 
1722 0.04387106999487761 -0.46989470418226736 -0.02245223665939089 125 120 119 0.8 53 0 57 0 65 0 
1723 0.9618413545208528 -0.4984860844635406 -0.03418116648654834 84 83 89 0.34 53 0 54 0 57 0 58 0 59 0 63 0 65 0 
1724 0.5802683431498783 -0.49009519164360216 -0.023832863577618824 60 49 50 0.34 53 0 64 0 65 0 
1725 1.2300633887335322 -0.5246326275610816 -0.032747923251291056 58 54 55 0.42 53 0 54 0 57 0 58 0 59 0 
1726 0.030829209946514557 -0.48526795958151026 -0.01978753767728758 89 78 75 0.57 53 0 54 0 57 0 59 0 63 0 65 0 
1727 0.9628996862371733 -0.5162933058972149 -0.03365388035942418 96 86 90 0.48 53 0 57 0 58 0 59 0 64 0 65 0 
1728 0.27011435770285375 -0.49702035855814825 -0.020508260998505223 158 157 153 0.28 53 0 54 0 57 0 59 0 65 0 
1729 0.7870659491674263 -0.519357575874982 -0.044065609238060244 108 114 130 1.02 53 0 54 0 57 0 58 0 59 0 63 0 64 0 
1730 0.4355398317375534 -0.5097855884047973 -0.024160029216713674 128 115 113 0.76 53 0 57 0 58 0 59 0 63 0 64 0 65 0 
1731 0.07842902512183464 -0.5016457073423429 -0.021248243638336106 143 137 140 0.26 53 0 57 0 63 0 
1732 0.48261569802787907 -0.5248205290177491 -0.024472841255689604 124 104 100 1.25 53 0 54 0 57 0 59 0 64 0 65 0 
1733 0.2645739254282359 -0.5260165074568345 -0.022596762902363565 117 101 102 1.18 53 0 57 0 59 0 64 0 
1734 1.0108391677500344 -0.5584873576549518 -0.02982643309255706 115 107 102 0.63 53 0 54 0 57 0 58 0 59 0 63 0 64 0 65 0 
1735 0.5138656557748429 -0.539459782035913 -0.02125416789739054 106 90 87 0.85 53 0 54 0 57 0 64 0 65 0 
1736 -0.3250183784472105 -0.5085636705532931 -0.03496862071831108 54 38 43 0.38 53 0 54 0 57 0 58 0 59 0 63 0 64 0 65 0 
1737 0.4320274099046032 -0.5406165431635841 -0.020801463675963472 174 175 178 0.77 53 0 54 0 57 0 58 0 59 0 63 0 64 0 65 0 
1738 1.175250692244297 -0.5752755097174649 -0.035851582996109466 121 111 108 0.77 53 0 57 0 58 0 59 0 63 0 
1739 0.06221329729962849 -0.5308698000924214 -0.021055126108223687 87 83 82 0.65 53 0 54 0 57 0 59 0 63 0 64 0 
1740 0.5819903029691478 -0.5680668149948016 -0.026413274364466277 52 43 44 0.39 53 0 54 0 57 0 59 0 63 0 64 0 65 0 
1741 0.280697048547498 -0.5573943208036791 -0.02835465149120875 137 135 136 1.49 53 0 54 0 63 0 64 0 
1742 -0.005208977642659485 -0.546003869438832 -0.02215303707529981 89 77 77 0.76 53 0 54 0 57 0 58 0 59 0 63 0 64 0 65 0 
1743 1.0766151527432752 -0.6030653163909951 -0.03264814638145719 100 97 97 0.59 53 0 54 0 57 0 58 0 59 0 63 0 64 0 65 0 
1744 -0.2980163606548622 -0.5356957747739051 -0.03319954011162762 58 47 51 0.5 53 0 54 0 57 0 58 0 59 0 63 0 64 0 65 0 
1745 -0.27054800436889737 -0.5402570817573135 -0.03412314115056159 63 54 59 0.37 53 0 54 0 57 0 58 0 59 0 63 0 64 0 
1746 0.9642120086445036 -0.6050938535257198 -0.030430343516832048 76 71 82 0.64 53 0 57 0 64 0 65 0 
1747 1.2181593578859977 -0.6256581966770345 -0.03432817569472357 31 28 24 0.79 53 0 54 0 57 0 59 0 63 0 64 0 
1748 0.4162873397990072 -0.5808748119289661 -0.019986978800789146 136 135 141 0.96 53 0 64 0 65 0 
1749 -0.3273525184016759 -0.5532626759762627 -0.03411295192840802 40 26 29 0.74 53 0 54 0 57 0 58 0 59 0 63 0 
1750 0.16583492469681393 -0.5759423660527041 -0.02473476718408163 111 105 101 0.85 53 0 54 0 57 0 58 0 63 0 64 0 65 0 
1751 0.5284533037326867 -0.5970236659834246 -0.017970305986797053 73 71 66 0.35 53 0 63 0 64 0 
1752 0.13073880641010138 -0.5766162721475104 -0.022462103510667797 83 77 77 0.54 53 0 54 0 57 0 59 0 63 0 
1753 -0.23661546112214543 -0.5601044511346679 -0.034488074587408546 47 34 37 0.34 53 0 54 0 57 0 58 0 63 0 64 0 65 0 
1754 0.040554544132571146 -0.5776325168570605 -0.02117867129055795 119 109 104 0.41 53 0 54 0 57 0 58 0 59 0 63 0 
1755 -0.31999781402543814 -0.5617038714456956 -0.03691768734673495 44 33 37 0.49 53 0 57 0 59 0 64 0 
1756 0.4664519333545447 -0.6140101803544158 -0.02424675976395041 95 92 88 0.53 53 0 57 0 58 0 64 0 
1757 0.3912312601287484 -0.6136783411470687 -0.02974359589008624 87 71 71 1.4 53 0 54 0 57 0 58 0 59 0 65 0 
1758 0.511223907049865 -0.6276559749782777 -0.017048404716439425 104 103 94 0.45 53 0 54 0 57 0 58 0 59 0 63 0 64 0 65 0 
1759 0.07100205341508337 -0.604271471503552 -0.02033157824490117 101 84 85 0.41 53 0 57 0 58 0 64 0 
1760 0.08190670357443508 -0.6043174343958984 -0.020065408319434708 107 92 90 0.5 53 0 54 0 57 0 58 0 
1761 0.10055780860434149 -0.6064785560777358 -0.02250778539372411 119 100 99 0.61 53 0 54 0 57 0 58 0 59 0 63 0 
1762 -0.0035175455408013034 -0.6044806254445708 -0.021933290185345733 76 63 63 0.67 53 0 54 0 57 0 58 0 59 0 63 0 
1763 0.24223189132107703 -0.6169027660999319 -0.0242254601290679 69 64 62 0.5 53 0 54 0 57 0 58 0 59 0 64 0 
1764 0.0399768548638475 -0.6069405214289113 -0.025429135210845555 137 133 128 0.93 53 0 54 0 57 0 58 0 63 0 65 0 
1765 0.040884778235877994 -0.6231488156760158 -0.021271998245446344 105 108 111 0.39 53 0 54 0 57 0 59 0 
1766 0.1965629440893928 -0.6457266877130245 -0.014068193268405915 77 80 78 0.32 53 0 54 0 63 0 64 0 
1767 -0.9896456011565239 -0.5783992641113636 -0.01818071435719859 114 108 105 0.69 53 0 54 0 57 0 
1768 0.16867322806985285 -0.6618621181426685 -0.018336058001970246 50 54 51 0.24 53 0 57 0 58 0 
1769 -0.19957615925907984 -0.6457814108088229 -0.04450477449311108 35 22 26 0.31 53 0 54 0 63 0 
1770 0.11809211740883718 -0.6689440698262827 -0.018960703574369075 62 57 61 0.61 53 0 57 0 59 0 
1771 -0.9549041250628617 -0.6078665062438842 -0.01559730934392456 68 48 50 0.18 53 0 54 0 57 0 
1772 -0.35881074691084486 -0.6491715196145252 -0.036184518093554274 30 19 21 0.56 53 0 54 0 57 0 58 0 59 0 63 0 64 0 65 0 
1773 -0.965590085513523 -0.6188748567424358 -0.007796909324695234 89 77 81 1.0 53 0 54 0 57 0 58 0 
1774 -0.32678722654323267 -0.6764808320309224 -0.039764536652765026 52 39 44 0.59 53 0 54 0 57 0 
1775 -0.9311014204367702 -0.6360666395881689 -0.009284675989409408 84 84 84 0.11 53 0 54 0 57 0 
1776 0.02965388404047864 -0.7103113195953221 -0.020502832203082022 69 76 79 0.53 53 0 57 0 58 0 59 0 
1777 -0.20338820814613173 -0.7014448999923647 -0.038817769363415966 69 77 91 1.32 53 0 54 0 57 0 
1778 -0.22331694031514848 -0.7023108573168703 -0.04113921851816249 62 69 82 0.4 53 0 54 0 57 0 59 0 
1779 -0.9430108002876566 -0.6528985020409179 -0.004468743423513777 24 22 19 1.32 53 0 54 0 57 0 
1780 -0.9241600044498817 -0.6569186803623726 -0.004075588775601213 20 18 16 0.3 53 0 54 0 57 0 
1781 -0.41794983942520614 -0.7024467869212323 -0.015221572680474749 21 15 13 0.43 53 0 57 0 59 0 
1782 -0.904547167385731 -0.663338958597012 -0.004173691570611426 38 38 37 0.26 53 0 54 0 57 0 
1783 -0.720434786142813 -0.6934410722019204 -0.0040716904033764045 37 37 34 1.34 53 0 57 0 63 0 
1784 -0.863246703390353 -0.6969965215648659 -0.009414064229124941 54 48 42 1.18 53 0 54 0 57 0 58 0 
1785 -0.9089340409918927 -0.6948862432165095 -0.0022493623166468524 59 55 49 0.6 53 0 54 0 57 0 58 0 
1786 -0.8877996983117995 -0.6978404769641005 -0.0090126943558686 76 66 56 0.38 53 0 54 0 57 0 58 0 
1787 0.6755815532748135 0.8076228841759205 0.022734525865578892 166 143 141 0.53 54 0 57 0 58 0 63 0 65 0 
1788 -0.40192410036760406 0.5353931152300435 0.020601285132272773 163 156 153 0.57 54 0 57 0 58 0 59 0 63 0 
1789 -0.3062437458492787 0.5580423549634219 0.01814948938786909 154 139 141 0.82 54 0 57 0 58 0 
1790 0.7698214454060526 0.8267338276507403 0.021608869446037016 136 137 145 0.37 54 0 57 0 63 0 65 0 
1791 -0.8161773110873606 0.4241567231819367 0.041008695467234846 202 201 199 1.41 54 0 57 0 58 0 
1792 1.0126025774285103 0.8830620602894546 0.024260206258603922 212 214 218 0.28 54 0 57 0 63 0 
1793 0.5941814412065654 0.7736094579778892 0.016626867835902504 168 180 188 1.02 54 0 57 0 58 0 63 0 64 0 65 0 
1794 0.5352567724596722 0.7526126279279799 0.024932214236750072 140 134 133 0.51 54 0 57 0 63 0 
1795 0.47404204421150065 0.730044808078786 0.02279417972033615 176 185 191 0.56 54 0 57 0 64 0 65 0 
1796 0.7992950604463047 0.811769992810903 0.021916641218113986 139 130 136 0.67 53 0 54 0 57 0 58 0 63 0 64 0 65 0 
1797 -0.05924080470483328 0.5912402553560003 0.016659060087260924 172 170 169 0.61 54 0 57 0 59 0 
1798 0.42190493008363805 0.7077542327997632 0.02070029775537674 159 149 150 0.36 54 0 57 0 58 0 
1799 0.7515226681670697 0.7839541649620325 0.019706348084717273 149 127 130 0.72 54 0 57 0 58 0 63 0 64 0 65 0 
1800 -0.3166727785624588 0.5192199505671531 0.02446816097364435 169 167 169 0.34 54 0 57 0 59 0 
1801 -0.7071300325642979 0.43114124383724245 0.021836564592094376 157 167 173 0.52 54 0 57 0 58 0 
1802 0.9135306439320239 0.8056019287543306 0.016403739502327985 161 164 164 0.58 54 0 57 0 58 0 63 0 64 0 
1803 0.6105545372831545 0.7234404422936973 0.0228620996561959 170 174 175 0.55 54 0 57 0 58 0 65 0 
1804 0.36089676338915533 0.6594208319649044 0.018606253158990338 178 169 165 0.27 54 0 57 0 59 0 
1805 0.5899606446775056 0.7081323949807081 0.01938028046333118 158 156 156 0.31 54 0 57 0 58 0 63 0 64 0 65 0 
1806 -0.34571488153448804 0.48571753219076147 0.003763456084204364 167 158 157 0.41 54 0 57 0 59 0 
1807 0.5936906286444841 0.6930926963212904 0.016520591839104037 155 145 147 0.56 54 0 57 0 58 0 63 0 65 0 
1808 0.5607552832225459 0.680997380388757 0.015860837213996115 162 155 155 0.41 54 0 57 0 59 0 63 0 
1809 0.7896786382109557 0.730568704525286 0.01701070360314727 163 164 166 0.89 54 0 57 0 63 0 65 0 
1810 -0.08927252773136563 0.5205676032326529 0.01942567455922628 103 98 103 0.83 50 0 51 0 53 0 54 0 57 0 59 0 63 0 64 0 65 0 
1811 0.42756612916000125 0.640348867832675 0.01859989443859056 173 170 173 0.42 54 0 57 0 59 0 
1812 0.7163206907964115 0.7092454027743402 0.019798338616018096 170 162 162 0.8 54 0 57 0 58 0 59 0 63 0 64 0 65 0 
1813 -0.26396841854972225 0.47565595409618294 0.02018967802475946 171 170 170 0.21 54 0 57 0 59 0 
1814 -0.16310265304366112 0.49721940534529824 0.01334911787087445 180 181 186 0.6 54 0 57 0 59 0 
1815 0.37955836646062846 0.6151456152282786 0.016504976625137724 145 138 136 0.31 54 0 59 0 63 0 
1816 0.5772343458370518 0.660375037240406 0.016061226073146306 176 177 179 0.53 54 0 57 0 58 0 59 0 63 0 64 0 65 0 
1817 -0.3505467593624411 0.4424002255691392 0.02183610663798019 176 169 168 0.64 54 0 57 0 58 0 59 0 
1818 -0.48854499781760796 0.4068745499341378 0.025670006617380503 178 179 178 0.2 54 0 57 0 58 0 
1819 -0.08909257942857107 0.49273569573126635 0.025664511610447693 163 156 157 0.86 54 0 57 0 58 0 59 0 
1820 0.7210025807562259 0.6823661253918503 0.017831894917272884 121 108 115 0.42 54 0 57 0 59 0 63 0 64 0 65 0 
1821 0.22834619129861156 0.5639509010481496 0.016645215853060558 157 151 147 0.52 53 0 54 0 57 0 59 0 63 0 
1822 -0.012730833514423168 0.4979248429465885 0.01546355636055119 195 195 194 0.15 54 0 59 0 65 0 
1823 -0.49566865811509936 0.39868119439361877 0.00998391566354262 177 175 173 0.21 54 0 57 0 59 0 
1824 0.0066850584715037464 0.4970323802481545 0.020546341895419484 131 109 107 0.31 54 0 57 0 59 0 
1825 -0.21783413312304414 0.44756875287975945 0.019332506383284986 170 166 162 0.74 54 0 57 0 59 0 63 0 
1826 0.841925873530452 0.6897675359760975 0.013145096537705792 169 161 161 0.5 54 0 57 0 58 0 59 0 63 0 64 0 
1827 -0.4714227536452969 0.39081680663400215 0.02298216940249631 158 152 150 0.59 54 0 57 0 58 0 59 0 
1828 -0.3938363490266549 0.40927951387700584 0.019482486042900593 182 177 173 0.52 54 0 57 0 59 0 
1829 0.9987827108278677 0.7160024954074005 0.011944440156162806 147 137 138 0.57 54 0 57 0 58 0 59 0 63 0 65 0 
1830 -0.5970720017978279 0.3576482335224976 0.02086150403644549 166 146 136 0.21 54 0 57 0 59 0 
1831 0.5306553355022043 0.5990912582295456 0.015326721938734078 180 173 170 0.87 53 0 54 0 57 0 58 0 59 0 63 0 65 0 
1832 -0.2018445212384781 0.42622601658229425 0.026675862968517983 186 188 189 1.03 54 0 57 0 59 0 
1833 -0.6169107835956679 0.3444370312911548 0.016971226368448056 205 212 216 0.15 54 0 57 0 59 0 
1834 -0.5128238411154278 0.35764137791454936 0.027052639125182854 149 153 157 1.11 53 0 54 0 57 0 59 0 63 0 
1835 -0.012301136382046107 0.46397721560823885 0.01656225594446714 181 175 174 0.7 54 0 57 0 58 0 59 0 63 0 
1836 1.3644121695508664 0.7740341478216644 0.005471574533874035 172 164 164 1.24 54 0 57 0 63 0 
1837 -0.15252348170838748 0.4310274227961269 0.016655467168239513 179 173 169 0.73 54 0 57 0 58 0 59 0 
1838 0.31168003322766535 0.5280854488648552 0.016407421806917233 150 141 140 0.7 53 0 54 0 57 0 59 0 64 0 65 0 
1839 0.556116758853711 0.5805612900745887 0.0153303570780714 129 129 132 0.61 50 0 53 0 54 0 57 0 58 0 59 0 63 0 64 0 65 0 
1840 1.0824967657414217 0.7007467663788853 0.013210845101361057 191 190 188 0.67 54 0 59 0 63 0 65 0 
1841 -0.8392428664235068 0.300005497074425 0.007059353925445766 152 147 148 0.55 54 0 57 0 58 0 
1842 -0.5707340941869886 0.3458264736418631 0.01448373202696418 203 205 209 0.16 54 0 57 0 59 0 
1843 0.9153560871057893 0.6550302085751845 0.01271524328565099 147 134 132 0.4 54 0 57 0 58 0 59 0 63 0 64 0 65 0 
1844 -0.09515067184352077 0.43508115811076614 0.0165661598800122 103 102 110 0.65 50 0 51 0 53 0 54 0 59 0 63 0 64 0 
1845 1.3271211405775887 0.7453794897518946 0.004984118273687832 174 176 178 0.81 54 0 57 0 58 0 59 0 63 0 
1846 1.361821874430308 0.738922392686888 0.011770614616299246 172 158 158 0.48 54 0 57 0 63 0 
1847 1.188905089260605 0.6925918627476024 0.01045841432318051 178 173 172 0.37 54 0 57 0 58 0 59 0 63 0 64 0 65 0 
1848 -0.23664409434439193 0.3870630629689909 0.010351595196514518 185 191 200 0.79 54 0 57 0 59 0 
1849 0.11312721220165167 0.45443116336054007 0.01385662247296926 162 152 153 0.21 54 0 57 0 58 0 65 0 
1850 0.26028373519276216 0.48580182643215924 0.011390904962337522 150 144 142 0.48 54 0 57 0 59 0 63 0 64 0 
1851 0.9501689386060939 0.6348582711506543 0.013492842088492552 149 138 142 0.5 53 0 54 0 57 0 58 0 59 0 63 0 64 0 65 0 
1852 1.2914663278450926 0.7093658872151574 0.011575917917873602 156 147 147 0.45 54 0 57 0 58 0 59 0 63 0 64 0 
1853 0.2966597242953166 0.49031114966841954 0.009167041450629743 149 144 145 0.6 53 0 54 0 57 0 58 0 59 0 63 0 64 0 
1854 1.2477043341698197 0.6953645039593728 0.004966722713821259 177 164 160 0.89 54 0 57 0 58 0 59 0 63 0 64 0 
1855 -0.5955351504207241 -0.7429400167462993 0.3970700539660088 114 113 127 0.91 54 0 57 0 58 0 
1856 1.1027046855888964 0.6526269803514473 0.012095138020589813 150 156 159 0.68 54 0 57 0 58 0 64 0 65 0 
1857 -0.7171742055117465 0.27993682880572596 0.01749780353625341 171 159 154 1.0 54 0 57 0 58 0 
1858 -0.07492941679663828 0.4003331628877938 0.014567179044847167 180 176 178 0.5 54 0 57 0 59 0 
1859 0.0027659208454525186 0.4181929970113701 0.01054569173920683 161 155 155 0.56 54 0 57 0 58 0 
1860 1.1787892838556233 0.662006620061339 0.011103616320954579 142 132 131 0.4 54 0 57 0 58 0 59 0 63 0 64 0 65 0 
1861 0.024472462692328167 0.4142585292227306 0.017964278405637524 154 144 143 0.68 54 0 57 0 59 0 64 0 
1862 0.9324491352980275 0.6041967643738138 0.010784081862975192 139 136 143 0.64 54 0 57 0 59 0 63 0 65 0 
1863 -0.5880248898285829 0.2948261711381342 0.020147359195383796 172 163 159 0.38 54 0 57 0 59 0 
1864 -0.19331655696329356 0.3679033324263921 0.016541175053708113 173 176 182 0.51 54 0 57 0 59 0 63 0 
1865 0.22620664138386914 0.4507481789701147 0.01640828787272053 168 159 157 0.6 54 0 57 0 58 0 59 0 
1866 -0.06423907926733641 0.39115289305864215 0.007186195408602769 168 159 154 0.43 54 0 57 0 58 0 59 0 
1867 0.8976214759264136 0.585944916940166 0.009705893588111802 136 133 137 0.59 53 0 54 0 57 0 58 0 63 0 64 0 65 0 
1868 -0.6823924190967102 0.27501945307824466 0.006925637477895874 149 141 142 1.39 54 0 57 0 58 0 59 0 
1869 -0.4350742764223012 0.31003179286458254 0.025789032668175338 157 141 139 0.9 54 0 57 0 59 0 
1870 0.13926270898135695 0.42259698916815763 0.013620802643460328 99 80 89 0.39 54 0 57 0 58 0 64 0 65 0 
1871 1.1864178953165445 0.6376759390361679 0.008921286091693403 110 116 126 0.26 54 0 57 0 58 0 59 0 63 0 64 0 65 0 
1872 1.2832841600689406 0.656030362297642 0.009467684553380984 161 156 155 0.62 54 0 57 0 58 0 63 0 64 0 65 0 
1873 0.022675692719388574 0.38593013934338843 0.01611725969626976 151 152 154 0.67 54 0 57 0 59 0 
1874 0.06321055200017389 0.3915179094488928 0.009093929629883757 172 167 163 0.57 53 0 54 0 57 0 58 0 65 0 
1875 -0.055808725204161025 0.36288481991584304 0.01562984545713042 143 142 146 0.68 54 0 57 0 59 0 63 0 
1876 0.5579616686497583 0.4790130347721598 0.01133557669728713 146 137 134 0.32 54 0 57 0 58 0 59 0 63 0 64 0 65 0 
1877 -0.5402625793127181 -0.7357591892726849 0.3729394042351353 63 73 87 0.22 54 0 57 0 58 0 
1878 -0.35385662510975596 0.29975885496450344 0.01605385037350393 74 93 107 0.2 54 0 57 0 58 0 
1879 0.05477030992296639 0.37593731664536495 0.004351780064951516 168 155 148 1.39 54 0 57 0 59 0 
1880 0.41069297241625946 0.4365697124782671 0.010587101422296685 103 103 112 0.74 53 0 54 0 57 0 63 0 64 0 
1881 0.07480002262325058 0.3688302437227747 0.011584662282142721 110 106 118 0.59 54 0 57 0 59 0 63 0 64 0 
1882 0.12650449398251484 0.3756146452203977 0.010416574568101522 148 142 142 0.31 54 0 57 0 65 0 
1883 1.3784433713564426 0.6188292446066115 0.0042856368456773986 157 149 148 0.45 54 0 57 0 59 0 63 0 64 0 65 0 
1884 -0.5266595861396622 -0.7344298579880988 0.35771206447002957 76 83 94 0.33 54 0 57 0 58 0 
1885 0.027779015115633632 0.34821931199968487 0.014985677194550462 129 119 119 0.41 54 0 57 0 58 0 63 0 
1886 -0.47979820002100726 0.2553129630792473 0.013945583083127433 176 174 173 0.47 54 0 57 0 58 0 59 0 63 0 
1887 -0.3664205515951968 0.279049263413827 0.004136104089593751 156 149 148 0.94 54 0 57 0 59 0 
1888 -0.35167323830695724 0.2723675158148106 0.018577311657651308 167 159 162 0.18 54 0 57 0 58 0 
1889 0.7133931816505554 0.47505670098982705 0.009270490987593583 104 101 108 0.73 54 0 57 0 58 0 59 0 63 0 65 0 
1890 0.049277014888947646 0.3407739957055998 0.012571917637564267 134 128 129 0.24 54 0 57 0 59 0 
1891 -0.3104532274567021 0.27493194714291486 0.011571305553013111 88 89 96 0.66 50 0 53 0 54 0 57 0 59 0 63 0 64 0 
1892 -0.7857865552242824 0.19166064176176595 0.015357531987562734 148 133 131 0.93 54 0 57 0 58 0 
1893 0.10108028407415703 0.3438413650836129 0.003902454377301412 124 101 93 0.28 54 0 57 0 58 0 
1894 1.1572135545597286 0.5431366770792523 0.008533816017860962 146 140 146 0.42 54 0 57 0 58 0 59 0 64 0 
1895 0.5058882567696864 0.415525024526414 0.006753833304819157 163 163 164 0.32 54 0 57 0 58 0 59 0 63 0 
1896 -0.4541478592909227 -0.7394399019927961 0.3036112422918511 35 41 49 0.79 54 0 57 0 58 0 
1897 -0.4405173270106849 -0.738857521512535 0.3007444842458855 39 27 30 0.84 54 0 57 0 58 0 
1898 0.533455469067234 0.41188298174791643 0.012560363333859348 172 171 170 1.51 54 0 57 0 58 0 59 0 63 0 64 0 
1899 1.5125055021802885 0.5988820649233078 0.004643339196003016 154 155 158 0.69 53 0 54 0 57 0 59 0 63 0 64 0 65 0 
1900 -0.1286008656051889 0.2899337397626767 0.011790690555356642 174 178 182 0.65 50 0 53 0 54 0 57 0 59 0 63 0 65 0 
1901 0.47066244474844476 0.39469006371985854 0.00878831285569981 174 167 161 0.72 54 0 57 0 58 0 64 0 65 0 
1902 0.062181990454001634 0.30801897479878965 0.007105452121245248 108 105 113 0.47 54 0 57 0 58 0 63 0 64 0 65 0 
1903 -0.30222678276228676 0.24508907102942318 0.010125313233794841 163 156 157 0.43 54 0 57 0 63 0 
1904 1.1529034167469563 0.5025808000263483 0.009340007854043986 155 151 148 0.89 54 0 57 0 59 0 63 0 65 0 
1905 0.8031394544561188 0.43943646586695845 -0.004087002540608342 160 162 163 0.9 54 0 57 0 58 0 59 0 64 0 
1906 1.4985671325759558 0.5529166500741411 0.005207455725193322 151 144 146 0.54 54 0 57 0 59 0 63 0 64 0 65 0 
1907 0.6026281741863748 0.3881893957478291 0.010956578389675453 104 105 114 0.59 54 0 57 0 59 0 
1908 1.2136994569939297 0.503178365554074 0.004531970212591219 151 142 145 0.62 54 0 57 0 58 0 63 0 65 0 
1909 -0.4081828052525941 0.2231017122506676 -0.006659190774068957 155 149 145 0.53 54 0 57 0 58 0 59 0 
1910 1.2624158181775678 0.5059748769787533 0.004792611457533402 167 156 154 0.7 53 0 54 0 57 0 58 0 59 0 63 0 64 0 65 0 
1911 -0.3806468707660868 0.2155807858723981 0.007799728741089584 164 164 162 0.34 54 0 57 0 59 0 
1912 -0.2873769615259032 -0.7321575663669089 0.23190440429772385 79 75 85 0.42 54 0 57 0 58 0 
1913 -0.42978678655391683 -0.7276665259405266 0.17158706339067464 54 54 57 0.36 54 0 57 0 58 0 
1914 0.1970052312859486 0.29368232519989773 0.008625149424526413 187 191 187 0.49 54 0 57 0 59 0 
1915 0.7506842718173656 0.3834854968539207 0.006145490347781335 141 129 132 0.88 53 0 54 0 59 0 63 0 64 0 
1916 -0.11060584914012095 0.2350003546642097 0.007367761591712707 166 159 155 0.67 54 0 57 0 58 0 59 0 
1917 0.39124658175304294 0.31853717021312994 0.001082247295549621 155 149 148 0.18 54 0 57 0 59 0 
1918 0.15725739845174536 -0.7281690983594429 0.3616895523224608 69 70 83 0.23 54 0 57 0 59 0 
1919 0.4226701976735401 0.3121552846873105 0.008991645990650499 85 85 95 0.72 50 0 51 0 53 0 54 0 57 0 59 0 63 0 64 0 65 0 
1920 0.6306247668210436 0.3486064532986957 0.006987232785387487 120 114 118 0.65 54 0 57 0 59 0 63 0 64 0 65 0 
1921 0.17833769354011986 0.2722579345066018 0.0072956490590863066 124 122 127 0.63 50 0 53 0 54 0 57 0 58 0 59 0 63 0 64 0 65 0 
1922 0.858405289882326 0.38687114360359925 0.00485151836444353 141 159 174 0.3 54 0 59 0 65 0 
1923 0.49797357442691903 0.32750974714686626 -0.010098103292907723 172 171 168 1.21 54 0 57 0 59 0 
1924 0.32185427549774137 0.2896162329438878 0.0037979437658777204 169 166 167 0.4 54 0 57 0 58 0 59 0 
1925 -0.09691726021371405 0.22529407324000977 -0.008445595596022537 176 168 161 1.16 54 0 57 0 63 0 
1926 -0.40511105015274385 0.1677947690195039 0.015422482340973653 144 145 147 0.25 54 0 57 0 59 0 
1927 0.5425754798020205 0.3236971708836274 0.00016360896669942449 139 118 120 0.8 54 0 57 0 58 0 59 0 
1928 -0.003723235148955173 0.2266063629553326 0.009532641012258036 90 96 104 0.97 54 0 57 0 63 0 64 0 65 0 
1929 1.3613415414938022 0.45126279090061244 -0.004506282888190771 153 158 162 0.7 54 0 63 0 65 0 
1930 -0.42371991029560907 -0.7215636804955285 0.05489771807579391 100 115 138 0.88 54 0 57 0 58 0 59 0 
1931 -0.07866929421214186 -0.7431649861957278 0.06052120633381586 81 82 94 0.73 54 0 57 0 59 0 
1932 -0.49254816247010796 0.14116966806347203 0.010005156883851507 184 184 186 0.45 54 0 57 0 58 0 
1933 1.3282450186398833 0.43149012498542577 -0.004220544232202084 167 158 155 0.41 54 0 57 0 58 0 59 0 63 0 65 0 
1934 -0.9649952211299059 -0.6997881779528996 -0.012231225681657687 25 24 25 0.23 54 0 57 0 58 0 
1935 1.1105414387965402 0.3893202875519471 0.004800032396602427 147 145 152 0.53 54 0 57 0 58 0 64 0 
1936 1.426630651806168 0.4311974074068809 -0.0010239565666463335 185 178 173 0.46 53 0 54 0 57 0 59 0 63 0 64 0 65 0 
1937 1.1109634140995404 0.37661903281461445 0.0018962380923555067 173 162 160 0.27 54 0 63 0 65 0 
1938 -0.4550373189842443 -0.718011636761779 -0.01976370705524988 46 52 60 0.68 54 0 57 0 58 0 59 0 
1939 0.5990003746682433 0.27615487143876255 0.0059370106482798946 154 146 148 0.47 54 0 57 0 58 0 59 0 63 0 65 0 
1940 1.52652013804874 0.4221609573551835 -0.008342602077238803 162 159 156 0.81 53 0 54 0 57 0 59 0 63 0 64 0 65 0 
1941 0.1853025744108614 0.205659182176738 0.0076256079948506805 84 73 90 0.51 54 0 57 0 59 0 63 0 
1942 1.5579491301268256 0.41990613295275675 -0.004534206040150313 146 137 124 0.46 54 0 59 0 63 0 65 0 
1943 -0.09981475358682906 0.16054299728887816 0.008370603319758141 155 146 134 0.6 53 0 54 0 59 0 63 0 
1944 -0.18557601146879277 0.14406097968680692 0.01082923301047889 148 137 126 0.48 54 0 57 0 58 0 59 0 
1945 1.1360463634942373 0.3451157603280673 0.0008961591466545293 139 142 152 0.63 54 0 57 0 58 0 59 0 65 0 
1946 1.0379424217164253 0.325319921276313 0.0014851657231125248 117 104 110 0.63 54 0 57 0 58 0 59 0 63 0 64 0 65 0 
1947 0.4137140490583129 0.22799228023913304 0.007787513176139349 140 135 137 0.69 54 0 57 0 58 0 64 0 
1948 0.6217453110560951 0.2609739652401138 0.0032189135807807467 154 151 151 0.38 54 0 57 0 58 0 59 0 63 0 64 0 65 0 
1949 1.425759594387539 0.381591816672124 -0.003282431656517426 135 122 121 0.37 54 0 57 0 59 0 63 0 65 0 
1950 -0.23169316430914588 0.1322265244547281 0.005786449659702209 141 127 127 0.59 54 0 57 0 58 0 59 0 
1951 0.3313273040882123 -0.715152906028018 0.10690628560106497 142 155 159 0.35 54 0 57 0 58 0 59 0 
1952 -0.5462313529385142 0.08741704973159348 0.003847374785530544 139 133 135 0.4 54 0 57 0 59 0 
1953 0.6875450757579491 0.2590645324523027 0.002485437770321841 142 140 140 0.92 54 0 57 0 58 0 59 0 63 0 64 0 65 0 
1954 0.4910625310431288 0.2263998874767879 0.007677440286592674 183 176 172 1.67 54 0 59 0 63 0 65 0 
1955 1.2184970317809745 0.33457748473086785 -6.45216446648611e-05 168 164 161 0.9 54 0 57 0 58 0 64 0 65 0 
1956 -0.3869359667613294 -0.6869778111250968 -0.024067722976034878 53 55 58 0.45 53 0 54 0 57 0 58 0 59 0 63 0 64 0 65 0 
1957 1.1794449102603484 0.3260402860827741 0.0004803633317345124 128 131 135 0.39 54 0 57 0 58 0 59 0 63 0 64 0 65 0 
1958 0.330807550548023 0.1960958777398592 0.0037689151115318786 118 103 103 0.23 54 0 57 0 58 0 59 0 
1959 -0.19009117281127783 0.11861952766091616 0.006353656799147567 149 148 146 0.14 54 0 57 0 58 0 
1960 0.47580446540052845 0.21455346391591795 0.0026331292606218692 150 135 137 1.14 54 0 57 0 59 0 63 0 64 0 
1961 0.298180768447749 0.18146729747396245 0.0010515784041102982 167 168 171 0.65 53 0 54 0 57 0 59 0 63 0 65 0 
1962 0.5514751144719817 0.2172905823652425 0.002478391001591973 161 158 158 0.74 54 0 57 0 58 0 59 0 63 0 64 0 
1963 -0.381823853751587 0.08468492074182399 0.011636126585103934 150 141 141 0.55 54 0 57 0 58 0 
1964 -0.14998833007458373 0.11916470725299727 0.004483123642999187 140 134 136 0.96 54 0 57 0 59 0 64 0 65 0 
1965 0.7012135192531261 0.23594907984017982 0.0017899816199380414 118 104 102 0.77 53 0 54 0 57 0 58 0 59 0 64 0 65 0 
1966 0.3492077064570027 0.1784666458991691 0.00450869767137152 143 138 135 0.68 54 0 57 0 58 0 59 0 63 0 64 0 65 0 
1967 0.5379448184618281 0.2014645255408019 -0.0012187746544713995 136 131 133 1.03 54 0 57 0 58 0 59 0 65 0 
1968 -0.8011240494455887 0.016527846075597707 0.023193516927831892 133 126 130 1.34 54 0 57 0 58 0 
1969 1.0516755155497342 0.26561526009030306 0.00038691385423028635 61 69 83 0.38 54 0 57 0 58 0 59 0 63 0 64 0 65 0 
1970 -0.3582646739616797 -0.67625361389884 -0.03772136953308891 29 19 22 0.56 53 0 54 0 57 0 59 0 63 0 64 0 65 0 
1971 0.6295195829611375 0.20225334019141733 0.0023416292826456964 165 162 159 0.66 54 0 57 0 59 0 65 0 
1972 1.5927830808042418 0.33867956680282624 -0.008010472500861177 93 82 92 1.33 54 0 57 0 59 0 63 0 64 0 
1973 1.3409891357180972 0.2968541291640006 -0.005328754740395736 104 100 107 0.45 53 0 54 0 57 0 59 0 63 0 
1974 -0.1551548909617877 0.08897565402848512 0.009958110871397974 172 175 174 0.65 54 0 57 0 59 0 
1975 0.05169017409365961 0.11677241850660475 0.006792773207883407 112 115 124 0.56 54 0 57 0 59 0 
1976 0.8291502128089712 0.2216306225514892 -0.0016131520598852145 165 165 163 0.47 54 0 57 0 59 0 65 0 
1977 -0.3868535774493231 -0.6629992829748736 -0.02558842865992106 42 40 47 0.46 54 0 57 0 58 0 59 0 63 0 65 0 
1978 0.030471433746086407 0.11295185216960879 -0.0004349643120864499 122 118 121 0.47 54 0 57 0 59 0 
1979 0.3471885273826 0.1503837693528805 0.0006171898032794054 143 137 138 0.25 54 0 57 0 59 0 63 0 
1980 0.8658875539547484 0.21992818948514553 -0.002353923733455332 132 131 142 0.56 54 0 57 0 59 0 63 0 64 0 65 0 
1981 -0.3542201301028773 0.05875001371902122 0.0020522044328588063 123 108 114 0.33 54 0 57 0 58 0 59 0 
1982 -0.09125659022942728 0.09582661562496242 -0.010825614764581326 118 112 113 0.89 54 0 57 0 59 0 
1983 0.3698627369492664 0.1503471490149449 0.004873382590222297 114 98 103 1.08 54 0 57 0 59 0 65 0 
1984 0.2967299040829309 0.13842562146679832 0.0035490759944414307 131 133 134 0.62 54 0 57 0 58 0 63 0 64 0 
1985 0.5389203193284017 0.16788539513248896 0.001989323873188731 123 109 110 0.42 54 0 57 0 58 0 59 0 64 0 65 0 
1986 0.3174331713248637 0.136121007991225 0.0002448080246597595 96 89 97 0.63 54 0 57 0 58 0 63 0 
1987 0.3441943604873502 0.13664783350017656 0.004652864149903957 187 180 176 0.44 54 0 57 0 58 0 63 0 
1988 0.10748446576346471 0.10666886782061652 -0.008087200537384431 138 139 145 1.54 54 0 57 0 65 0 
1989 1.0972158523300395 0.23388146924723358 -0.0015617925284561185 98 99 110 0.74 54 0 57 0 58 0 63 0 64 0 65 0 
1990 0.19900076105863718 0.11390700639083529 -0.000848427204751756 163 162 161 0.49 54 0 57 0 59 0 
1991 1.0171584987550066 0.2212616749933905 -0.004347657080114864 162 173 177 0.73 53 0 54 0 57 0 58 0 59 0 63 0 65 0 
1992 0.0713019702645048 0.09018104306544644 0.002187200454958793 143 130 129 0.82 54 0 57 0 59 0 
1993 0.7979462335099268 0.18493352337009633 0.002433497091953285 157 150 148 0.65 54 0 57 0 58 0 63 0 64 0 65 0 
1994 0.7071787975273127 0.17022183762002902 -0.0007771191367635932 132 118 117 0.8 54 0 57 0 58 0 59 0 
1995 0.41878664419805767 0.12570326994217634 0.0035021151646497106 148 135 135 1.13 54 0 57 0 58 0 59 0 65 0 
1996 0.7460434053273821 0.16782707428651084 0.0009456481256200355 127 123 126 0.41 54 0 57 0 59 0 65 0 
1997 0.73733756654157 -0.6908841668729577 -0.04887433575873712 36 38 45 0.42 54 0 57 0 63 0 
1998 0.09099846154265145 0.0803080030119045 -0.014035526531256615 168 162 165 0.91 54 0 57 0 59 0 
1999 0.7192685278618225 0.15093399186662354 -0.0023950254567268736 93 89 94 0.77 50 0 51 0 53 0 54 0 57 0 59 0 63 0 65 0 
2000 1.1592978941424559 0.20475964598491586 -0.0007577825316358311 184 183 180 1.05 54 0 59 0 63 0 
2001 1.2015391178412629 0.2086648349735601 -0.00034805824506300986 96 96 102 0.77 54 0 57 0 58 0 63 0 64 0 65 0 
2002 0.6482387391313891 0.1382357241911219 -0.0004302867773240404 147 135 130 0.43 54 0 57 0 58 0 59 0 63 0 64 0 
2003 0.4792822389145053 0.11590127168981712 -0.0004028704023948393 126 123 125 0.73 54 0 57 0 58 0 59 0 63 0 
2004 0.8500871039137841 0.1593985239494034 -0.001725119613618764 82 94 104 0.38 54 0 57 0 58 0 59 0 63 0 64 0 65 0 
2005 0.39889258997143207 0.1011709321590551 -0.014283965097579232 159 154 151 1.27 54 0 57 0 63 0 
2006 -0.08756683407659427 0.039607156134869814 -0.005569061815187348 127 120 121 0.56 54 0 63 0 65 0 
2007 0.16022285452845175 0.0659840183312071 0.004837566023853546 171 166 159 0.51 54 0 57 0 58 0 59 0 63 0 64 0 65 0 
2008 0.7392385379186894 -0.679106735705566 -0.05107193544559374 69 53 60 0.55 54 0 57 0 58 0 63 0 64 0 65 0 
2009 -0.40963898732298243 -0.6270472797369474 -0.015283735679294752 77 75 75 0.53 54 0 57 0 58 0 59 0 63 0 
2010 -0.3878800393464343 -0.6279777091049519 -0.024567327461500588 59 61 66 0.36 54 0 57 0 58 0 59 0 63 0 64 0 65 0 
2011 0.4164176551609662 -0.6622404460007376 -0.021544078863692473 57 60 57 0.85 54 0 59 0 63 0 
2012 -0.24647717754046117 0.017840420502287846 -0.0008644181416603836 154 135 124 1.21 54 0 57 0 59 0 
2013 0.05078945403516705 0.0506516736152548 0.0004907093784061178 161 158 158 0.54 54 0 57 0 59 0 
2014 -0.22274205968815824 0.01800654056164236 0.0012549291575183474 140 122 110 0.56 54 0 57 0 59 0 
2015 0.30603154995479964 0.07453314890712598 0.008917132372671777 146 145 148 0.72 54 0 59 0 63 0 
2016 0.10576032533684798 -0.6409350016767128 -0.025511507643315 96 95 95 0.05 54 0 63 0 65 0 
2017 0.9362837826865229 -0.6848379754399914 -0.05238035941781494 22 20 23 0.23 54 0 57 0 59 0 
2018 0.1709465159145951 -0.6461465187834197 -0.01870411224852009 102 97 92 0.39 50 0 53 0 54 0 59 0 63 0 64 0 
2019 -0.1594021112891315 0.021135034188911717 0.00576770233329893 133 109 106 0.68 54 0 57 0 58 0 59 0 
2020 0.18013779533981888 0.059082662527921326 0.002412422166350403 175 184 191 0.71 54 0 57 0 59 0 63 0 
2021 0.23678931331905184 0.06450696544751672 0.0026763184015754504 200 205 206 0.72 54 0 57 0 58 0 59 0 
2022 0.5846970917517593 0.10025127107739212 -0.003115861038240464 140 134 136 0.58 54 0 57 0 58 0 59 0 63 0 65 0 
2023 1.2069407394054015 0.1752072460565713 -0.0020299580517508797 83 72 83 0.81 54 0 57 0 58 0 59 0 63 0 
2024 -0.3870586469781323 -0.6127402085552249 -0.026186802878463533 55 52 57 0.48 54 0 57 0 58 0 59 0 65 0 
2025 -0.22286413983406927 0.005944582750152749 0.003520650903511058 151 141 133 0.47 54 0 57 0 59 0 63 0 
2026 -0.07465497338711702 0.02162335393839132 0.0012899751555390804 164 149 138 0.35 54 0 57 0 58 0 
2027 -0.6497102557429045 -0.03483776038572145 -0.009730226717783674 159 158 161 0.72 54 0 57 0 59 0 
2028 0.6224802230109427 0.09922680719618038 -0.002209221958238805 150 144 145 0.43 54 0 57 0 58 0 64 0 65 0 
2029 -0.5209403970524316 -0.02911857581205257 0.005210958812852828 139 129 131 0.47 54 0 57 0 58 0 
2030 -0.05193972491107546 0.01995861496385104 0.00157279832867796 144 128 121 0.35 54 0 57 0 58 0 59 0 
2031 0.3881082756490244 0.06900627172766571 0.002428419446434349 170 163 156 0.56 54 0 57 0 58 0 59 0 63 0 65 0 
2032 0.2591882872810084 0.04362568275972817 0.012246364376430119 174 186 195 0.66 54 0 57 0 58 0 59 0 63 0 
2033 0.4527534281055763 0.06934270601693526 -0.0015906972718424672 150 143 145 0.93 53 0 54 0 57 0 58 0 59 0 63 0 64 0 65 0 
2034 0.7376002436597988 0.10232181405738933 -0.0031674707639357536 146 143 139 0.73 54 0 57 0 58 0 59 0 63 0 64 0 65 0 
2035 -0.6192973174327576 -0.0474333526749075 0.0045998774053708225 109 91 94 0.3 54 0 57 0 58 0 59 0 
2036 0.7562395695865265 0.10262258869609292 -0.0029552494881883717 136 120 112 0.39 54 0 57 0 59 0 63 0 64 0 65 0 
2037 -0.4485943665293298 -0.03059981881573537 -0.0011381696097172433 110 84 85 0.22 54 0 57 0 59 0 
2038 0.2941066508640193 0.04588074443448714 0.004785491830852084 163 169 174 0.57 54 0 57 0 58 0 59 0 63 0 64 0 65 0 
2039 0.9801452770183736 0.12493135972936276 -0.007239566118883989 165 163 160 0.64 53 0 54 0 57 0 58 0 59 0 63 0 65 0 
2040 1.430577626752771 0.1724495636186077 -0.006067196577996814 147 140 134 0.28 54 0 57 0 59 0 63 0 64 0 
2041 -0.3726332389793022 -0.02886116321257226 0.004116739892270349 139 133 133 0.35 54 0 57 0 59 0 
2042 -0.18810582647443927 -0.01118041764366412 -0.0005065099838257314 170 168 164 1.29 54 0 57 0 59 0 
2043 0.16014006824240468 0.02361820724547331 0.0025825867801536617 166 162 157 0.61 54 0 57 0 59 0 63 0 
2044 -0.3276736109515518 -0.02898138279307605 0.0029698296345397335 135 133 131 1.09 54 0 57 0 58 0 59 0 
2045 -0.14870627444920154 -0.007493627538649905 -0.01240443360345811 131 127 126 0.64 54 0 57 0 58 0 59 0 
2046 0.4329904916603522 0.05217142354722387 0.0005312089455165037 154 146 148 0.44 54 0 59 0 65 0 
2047 0.6670967873674702 0.0728262408200635 -0.0044877706347805635 129 124 121 0.49 54 0 57 0 58 0 59 0 63 0 64 0 65 0 
2048 0.5075910682970326 0.05322341331729946 -0.0042649432713546265 152 145 146 1.05 54 0 59 0 65 0 
2049 0.6940277800334362 0.0708507549683689 0.0037946088684641666 118 113 113 0.66 54 0 57 0 59 0 63 0 64 0 
2050 0.8301255511092449 0.090785908475992 -0.005257413353463525 126 118 112 0.42 54 0 57 0 58 0 59 0 63 0 64 0 65 0 
2051 -0.5835306993908431 -0.06247329927929529 0.008368350808402703 65 69 81 1.01 54 0 57 0 59 0 
2052 0.38670380688997674 0.038332694252535826 0.0022621142505567793 163 163 165 0.37 53 0 54 0 57 0 58 0 59 0 63 0 64 0 65 0 
2053 0.8767228308878634 0.08924835849766849 -0.0005522948412031159 167 167 167 0.74 54 0 57 0 59 0 
2054 1.0839350565780994 0.11470611097168343 -0.007002320834372799 109 107 115 0.62 54 0 57 0 58 0 64 0 
