# 3D point list with one line of data per point:
#   POINT3D_ID, X, Y, Z, R, G, B, ERROR, TRACK[] as (IMAGE_ID, POINT2D_IDX)
# Number of points: 472, mean track length: 4.6
1534 -0.11231813162806392 -0.3919163489114839 0.003314568956178432 76 60 62 0.51 63 0 64 0 65 0 66 0 
1535 -0.13450229847534168 -0.3940475637248081 0.013291950105785544 154 145 140 2.29 63 0 65 0 66 0 
1536 -0.7714531581366473 -0.417134075317942 -0.0314078367071291 119 116 119 0.95 63 0 65 0 66 0 67 0 68 0 
1537 0.7001993910334324 -0.3879406291686928 0.03373538394970166 109 101 103 0.23 63 0 64 0 66 0 
1538 0.45793857294468654 -0.39066613135105405 0.020264272457547916 120 103 105 0.26 63 0 65 0 66 0 
1539 -0.11166529917571211 -0.4217463070518222 0.006220312531652672 87 72 73 0.3 63 0 65 0 66 0 
1540 -0.19922187512465928 -0.42837754858215793 -0.03181697048770782 93 93 94 1.6 63 0 65 0 66 0 
1541 0.5560401619496724 -0.4182005871881769 0.034031231876955115 87 73 74 0.16 63 0 64 0 66 0 
1542 -0.13681933925698386 -0.4356878930692415 0.005615908234043898 120 102 98 0.42 63 0 65 0 66 0 
1543 -0.7809779680164164 -0.4593324985098647 -0.021194176319652813 126 126 128 0.76 63 0 65 0 66 0 67 0 68 0 
1544 0.277385104352214 -0.4475817076722996 0.04311172615557157 58 46 50 0.22 63 0 66 0 68 0 
1545 -0.7504721878092013 -0.47162651760465923 -0.024172692585354483 92 92 92 0.29 63 0 64 0 65 0 66 0 67 0 
1546 1.1762533375786155 -0.47392081107203865 0.07835862814140482 42 31 35 0.27 63 0 65 0 66 0 67 0 68 0 
1547 -0.7528530928155965 -0.48887198024262624 -0.022114825937489258 98 102 101 0.32 63 0 64 0 65 0 66 0 68 0 
1548 -0.7310212573717345 -0.4898005753309728 -0.01932326384721139 116 108 112 0.41 63 0 64 0 65 0 66 0 67 0 68 0 
1549 0.40231947165294923 -0.47797533357154276 0.023793571083833953 157 154 154 0.58 63 0 64 0 65 0 66 0 67 0 68 0 
1550 -0.11283862514513299 -0.4827882117940602 0.005616727445959535 102 89 88 0.4 63 0 64 0 65 0 66 0 
1551 -0.1434892359808091 -0.48271182845895616 0.0020455203418456858 130 129 119 0.21 63 0 64 0 65 0 66 0 
1552 0.7931234914799681 -0.48700587049612576 0.03952450468261581 125 121 122 0.81 63 0 65 0 66 0 
1553 0.40732685520904455 -0.4907472984190646 0.02757803523874558 108 98 91 0.36 63 0 64 0 66 0 67 0 
1554 0.3442427661095001 -0.493493737320855 0.021532737725614037 102 85 84 0.54 63 0 64 0 66 0 67 0 
1555 -0.7498213890929628 -0.5051269168864039 -0.015944239532560855 119 120 119 0.54 63 0 64 0 65 0 66 0 67 0 68 0 
1556 0.42649233223075733 -0.5035622754621298 0.027472014176734394 86 90 94 0.75 63 0 64 0 65 0 66 0 67 0 68 0 
1557 1.1723119336729722 -0.5151863395809163 0.07582477504547924 55 39 43 0.46 63 0 64 0 65 0 66 0 67 0 68 0 
1558 0.47704558793289964 -0.5074380595273806 0.03353331737009735 162 157 155 0.2 63 0 64 0 66 0 
1559 0.311545772799648 -0.5093793528150163 0.025632517906417185 132 116 106 1.02 63 0 64 0 65 0 66 0 67 0 
1560 -0.110255077847778 -0.5107837676190337 0.011633146958875296 98 89 88 0.41 63 0 64 0 65 0 66 0 
1561 1.0059983974431255 -0.5181415801794882 0.06469695652858554 58 41 46 0.47 63 0 64 0 65 0 66 0 67 0 68 0 
1562 -0.7689291009152157 -0.5195040454304669 -0.028770557634216765 96 88 90 0.76 63 0 65 0 66 0 67 0 68 0 
1563 0.3553782704299997 -0.5219366115916622 0.02648922385755026 111 98 92 1.06 63 0 65 0 66 0 67 0 
1564 -0.11239721576131156 -0.5257594867945952 0.007651019367655776 108 100 99 0.42 63 0 64 0 65 0 66 0 
1565 -0.7991991062312598 -0.5339064203582419 -0.0207767943291024 90 76 73 0.51 63 0 64 0 65 0 66 0 67 0 68 0 
1566 -0.7684774764639339 -0.5338200678947284 -0.025479536747706533 97 96 95 0.54 63 0 64 0 65 0 66 0 67 0 
1567 -0.7843798691038419 -0.5349302580839749 -0.020729019485535405 96 71 71 0.42 63 0 64 0 66 0 67 0 68 0 
1568 1.0817035718061054 -0.5483272959282193 0.08033780581364747 79 85 100 0.66 63 0 65 0 66 0 
1569 0.5268111210603091 -0.5388222720231259 0.029800873233480907 116 93 90 0.36 63 0 64 0 65 0 66 0 
1570 0.5003539247533655 -0.5382585033040668 0.05627088162778282 141 138 133 2.01 63 0 65 0 66 0 
1571 -0.8002521494447883 -0.546623201360966 -0.016938769970817225 56 47 46 0.4 63 0 64 0 65 0 66 0 67 0 
1572 -0.13492386116006672 -0.5432775993554101 0.0025543905339828754 132 129 119 0.17 63 0 64 0 65 0 66 0 
1573 0.8528034890591933 -0.5609916060681432 0.04246756874530555 74 52 53 0.38 63 0 65 0 66 0 68 0 
1574 0.12914038534916816 -0.5515497343514147 0.03673807850258437 68 49 53 0.06 63 0 64 0 66 0 
1575 1.0828540988768733 -0.5702003171833008 0.0672045770447971 53 39 43 0.38 63 0 64 0 65 0 66 0 67 0 68 0 
1576 1.0090662427105208 -0.5707247929180561 0.07184934533921439 43 31 35 0.61 63 0 64 0 65 0 66 0 67 0 68 0 
1577 0.9173453383626062 -0.5686407310381404 0.06175154518844317 45 32 35 0.5 63 0 64 0 65 0 66 0 67 0 68 0 
1578 0.07323569056835888 -0.5575454155938936 0.02583902966333307 146 155 169 0.52 63 0 64 0 65 0 66 0 67 0 
1579 0.733961928525033 -0.5680263480773564 0.042603098818821294 99 74 73 0.6 63 0 64 0 65 0 66 0 67 0 
1580 0.8621630436169725 -0.5801921808493894 0.05115172310459881 78 50 50 0.42 63 0 64 0 65 0 66 0 68 0 
1581 0.2059619243310864 -0.5783934740636127 0.040501422699027234 45 31 34 0.42 63 0 64 0 65 0 66 0 67 0 
1582 0.8145733316825612 -0.5940670250923352 0.049883559543750344 115 103 99 0.44 63 0 65 0 66 0 67 0 
1583 -0.8000770603978697 -0.5791899587477514 -0.017842119173121507 70 66 65 0.47 63 0 65 0 66 0 67 0 
1584 0.06962093431086958 -0.5835655736538978 0.026636102307259435 46 49 57 0.54 63 0 64 0 65 0 66 0 67 0 
1585 0.2711726572676987 -0.5866677815039756 0.024356690171026596 48 45 45 0.43 63 0 64 0 66 0 67 0 
1586 -0.7797616184859106 -0.5985636586555625 -0.017878067434361933 93 93 93 0.6 63 0 64 0 65 0 66 0 67 0 68 0 
1587 1.3962080241383052 -0.6465893331693817 0.0669419702079106 43 44 46 0.4 63 0 64 0 66 0 67 0 
1588 0.3323703040075804 -0.6134268531806897 0.027508716592249405 120 116 116 0.94 63 0 64 0 66 0 68 0 
1589 0.017378584736152725 -0.6112675759615752 0.037778429014565074 64 40 45 0.15 63 0 65 0 66 0 
1590 -0.7994505498857787 -0.6079960455698299 -0.010014374090794309 74 77 66 0.52 63 0 66 0 67 0 
1591 0.015364404726322167 -0.6356474808519552 0.037688124435539816 117 114 117 0.42 63 0 64 0 65 0 66 0 67 0 
1592 1.0162872783388792 -0.6691001952077948 0.07637205169776395 49 36 41 0.44 63 0 64 0 65 0 66 0 67 0 68 0 
1593 -0.13231535465678124 -0.63350458550374 0.009489934403854372 117 98 85 0.39 63 0 64 0 65 0 66 0 
1594 0.27428421740359854 -0.6469126526102276 0.026459169305084407 68 76 79 0.29 63 0 64 0 65 0 66 0 67 0 68 0 
1595 0.04623912963711785 -0.6505399247084163 0.03846224111153229 56 45 51 0.59 63 0 64 0 66 0 67 0 
1596 -0.7201919738699525 -0.6386598768750607 -0.02204527108546439 93 99 103 1.22 63 0 65 0 66 0 68 0 
1597 -0.7387110279792066 -0.6396766525795919 -0.01619031149494532 95 92 93 0.2 63 0 64 0 65 0 66 0 67 0 68 0 
1598 -0.7567674662697146 -0.6398134658853993 -0.0190106431718855 90 85 83 0.71 63 0 64 0 65 0 66 0 67 0 
1599 0.4662456814542506 -0.6679783223692035 0.027545145719719333 68 66 64 0.45 63 0 64 0 66 0 67 0 
1600 -0.7161793307788584 -0.6539966959203334 -0.015054073092743536 63 66 64 0.47 63 0 64 0 65 0 66 0 67 0 68 0 
1601 -0.7432942463740442 -0.6542886047036729 -0.01717289787648979 104 115 118 0.44 63 0 64 0 65 0 66 0 67 0 68 0 
1602 -0.7583803910260001 -0.6542051279969407 -0.0177969677143357 64 61 56 0.29 63 0 64 0 65 0 66 0 
1603 0.4432132420957755 -0.6917409271338895 0.031881456961655896 89 103 99 0.59 63 0 65 0 66 0 
1604 -0.7433487232445495 -0.6740056744132269 -0.01994819985070273 88 91 92 0.47 63 0 64 0 65 0 66 0 67 0 
1605 1.3414772929144434 -0.7352364550224884 -0.16205504787762925 43 47 47 0.25 63 0 64 0 65 0 66 0 67 0 
1606 -0.22358370959275398 -0.7113510729043837 0.0027988018478799503 60 51 47 0.35 63 0 65 0 66 0 
1607 1.3908894286822562 -0.7409120168056702 -0.2812770563941738 51 50 56 0.46 63 0 65 0 66 0 
1608 0.2528242622438942 -0.731637646989982 0.030750901723723745 108 119 123 2.04 63 0 65 0 66 0 67 0 68 0 
1609 -0.07768897087352289 -0.7243532367721361 0.03514988128094454 38 34 42 0.21 63 0 64 0 65 0 66 0 67 0 
1610 -0.7416283578012388 -0.7127776064190936 -0.015454002917369092 28 27 25 0.32 63 0 64 0 65 0 66 0 68 0 
1611 -0.1881679501769853 -0.7290653736428413 0.004490374159222599 72 67 66 0.31 63 0 64 0 66 0 
1612 -0.6747407886978716 -0.7144110928933318 -0.020443099110321272 20 20 17 0.88 63 0 64 0 65 0 66 0 67 0 
1613 0.4977565690204293 -0.7386654569961861 -0.09953481857349278 82 92 95 1.03 63 0 66 0 67 0 
1614 -0.7201715641019459 -0.717146724081665 -0.01472911733438087 21 22 21 1.34 63 0 65 0 66 0 67 0 
1615 -0.7804788646603755 -0.7137901884872008 -0.03832818869484833 38 38 33 2.38 63 0 64 0 65 0 66 0 67 0 68 0 
1616 0.47148235423961105 -0.7458595116390183 -0.08516944031349127 117 119 123 0.43 63 0 66 0 67 0 
1617 -0.5191445326172306 -0.7058567239477365 -0.2553380670428391 39 42 40 0.56 63 0 64 0 65 0 66 0 67 0 68 0 
1618 -0.6698670846293338 -0.7245160667313133 -0.18069001671275653 78 78 78 0.71 63 0 64 0 65 0 66 0 
1619 -0.026013945163055663 -0.7535397869634275 -0.30170410798999003 69 68 76 0.35 63 0 64 0 65 0 66 0 67 0 68 0 
1620 3.8577011942961077 2.6727506931929086 0.9863029164116032 179 217 227 0.31 64 0 65 0 66 0 
1621 0.48945508536342697 0.9430940745240945 -0.010729484853601257 168 175 180 0.23 64 0 66 0 68 0 
1622 3.3731533778657052 2.5580482615934104 1.113280827965263 188 199 207 0.42 64 0 65 0 66 0 
1623 4.428184873759093 2.9077889777879133 1.2266625012320496 180 216 225 1.63 64 0 65 0 66 0 
1624 4.275282287393768 2.607829365262099 0.9150717808136132 209 241 255 0.31 64 0 65 0 66 0 67 0 68 0 
1625 3.7307500651854864 2.570298238304101 1.1782164371560617 142 171 186 0.3 64 0 65 0 66 0 
1626 -0.11819120644176295 0.6751534785809259 -0.03367665166933764 177 177 175 0.66 64 0 65 0 66 0 68 0 
1627 4.334252022645164 2.545025146571754 0.9758461571872565 180 227 249 0.43 64 0 65 0 66 0 67 0 68 0 
1628 -0.5696450338657286 0.5439411645231258 -0.04924176791548773 185 177 172 0.64 64 0 65 0 66 0 67 0 
1629 -0.0034848543225656226 0.6989028703169706 -0.020277295417109542 179 177 177 0.59 64 0 65 0 66 0 67 0 
1630 3.9575699050773943 2.5670518250181247 1.2295236655425605 117 152 149 0.49 64 0 65 0 66 0 
1631 0.16584639640099663 0.7227072103119785 -0.03743859686236495 160 152 155 1.08 64 0 65 0 66 0 67 0 
1632 -0.02674575244392252 0.6703207561985676 -0.032701879238193676 138 133 137 0.84 64 0 65 0 66 0 
1633 -0.27847390443613707 0.611120055603946 -0.032290378440166245 157 165 168 0.49 64 0 65 0 66 0 67 0 68 0 
1634 -0.5247255805753843 0.5349934939992544 -0.04493969682000576 198 196 191 0.59 64 0 66 0 68 0 
1635 4.522700985075249 2.616726608351351 1.1981546979541444 233 250 254 0.47 64 0 66 0 67 0 
1636 -0.5441262666746014 0.5184849142551937 -0.042651133537941144 160 159 157 1.19 64 0 65 0 66 0 67 0 
1637 -0.7363378277340724 0.47039045797395157 -0.05040698330139648 162 151 148 0.37 64 0 65 0 66 0 67 0 68 0 
1638 -0.5197949136687674 0.5118091695228788 -0.05131189628488064 188 186 187 0.4 64 0 66 0 68 0 
1639 5.42612171872841 2.9153413892925637 1.558865421107108 196 232 249 0.74 64 0 65 0 66 0 67 0 
1640 -0.41831785415934086 0.4974415595115727 -0.022394437761828145 160 163 164 0.54 64 0 65 0 66 0 67 0 68 0 
1641 -0.7311482719328009 0.404435259020498 -0.05268652731418655 165 162 158 0.42 64 0 65 0 66 0 67 0 68 0 
1642 -0.636727040386075 0.4195884080084015 -0.05047816085254997 144 129 118 0.28 64 0 66 0 67 0 68 0 
1643 -0.7573244067496172 0.39415468660841374 -0.048058617716606467 162 166 164 0.49 64 0 65 0 66 0 
1644 -0.6599211693017386 0.40406621470359755 -0.04837525302905488 128 146 155 0.43 64 0 65 0 66 0 67 0 
1645 -0.659493900423558 0.3942952359615834 -0.04553826779797854 151 146 143 0.4 64 0 65 0 66 0 67 0 
1646 -0.6403870492856032 0.392497764878819 -0.04949031836424145 170 167 164 0.25 64 0 65 0 66 0 67 0 68 0 
1647 -0.7005742250177396 0.3767401611229208 -0.04823750088281442 142 134 132 1.43 64 0 66 0 67 0 
1648 -0.6197221023694317 0.37512954308184415 -0.04207942391332664 178 166 160 0.41 64 0 65 0 66 0 68 0 
1649 -0.6321678658676444 0.3591646758437938 -0.04671038043994247 155 148 140 0.63 64 0 65 0 66 0 67 0 
1650 -0.6648079137720406 0.3415881752639282 -0.05028003050298113 177 170 166 0.8 64 0 65 0 66 0 67 0 
1651 -0.7271744866289231 0.3263162646215603 -0.04837432904198158 181 170 160 0.87 64 0 65 0 66 0 67 0 68 0 
1652 -0.7471712891864586 0.3109338275772507 -0.04972756825218072 166 158 153 0.38 64 0 65 0 66 0 67 0 
1653 -0.46656300398735673 0.3554009117586809 -0.04951543371369538 179 177 175 1.31 64 0 65 0 66 0 
1654 -0.6221613624602413 0.3266206997473526 -0.042723675815708795 157 160 159 0.53 64 0 65 0 66 0 68 0 
1655 -0.6741245972371663 0.3052396449025054 -0.049524478040327446 128 137 143 0.3 64 0 65 0 66 0 
1656 -0.6207869116607663 0.3158171313500468 -0.042693479793675104 174 175 174 0.49 64 0 65 0 66 0 68 0 
1657 -0.4527056418777333 0.3159258171300154 -0.04372879695590881 102 109 124 0.61 64 0 66 0 67 0 68 0 
1658 -0.7892199272481424 0.25340226796282267 -0.04425360080010132 94 96 103 0.41 64 0 65 0 66 0 67 0 
1659 0.3009254057710651 0.47071181668402956 -0.003699985388361915 111 116 129 0.35 64 0 65 0 66 0 
1660 1.768771156887394 0.7597857616850756 0.027490222022874322 100 102 105 0.35 64 0 65 0 66 0 
1661 -0.6438773173323746 0.2504326241450278 -0.043817804315711806 189 179 169 0.54 64 0 65 0 66 0 67 0 68 0 
1662 -0.8089606989473899 0.21751202263377228 -0.04413907967923425 117 128 134 0.13 64 0 65 0 66 0 
1663 -0.7887568949592634 0.21547390257715965 -0.049803076875459595 105 104 108 0.24 64 0 65 0 66 0 68 0 
1664 -0.23010220864459563 0.31694522025369326 -0.027875768868897977 128 118 118 0.33 64 0 65 0 66 0 67 0 68 0 
1665 -0.382845074589802 0.27908043647864295 -0.041652677561053286 164 156 153 1.01 64 0 65 0 66 0 67 0 
1666 -0.5967373937550342 0.23531438796735255 -0.03868018532946005 174 166 157 1.12 64 0 65 0 66 0 67 0 68 0 
1667 -0.5077306066977667 0.24988468044588558 -0.035965072832792266 185 188 188 0.38 64 0 65 0 66 0 
1668 -0.7298252003505938 0.20214288720266754 -0.04716935828027835 115 117 117 0.65 64 0 65 0 66 0 67 0 68 0 
1669 -0.5068215397164635 0.23884925680096253 -0.035732150797517015 149 143 144 0.53 64 0 66 0 67 0 68 0 
1670 0.22012319200675923 0.3549619249979307 -0.01557962595382989 103 110 119 0.27 64 0 66 0 67 0 
1671 0.8390908946594966 0.47477509334334417 0.017661717886013673 115 120 127 0.42 64 0 66 0 67 0 68 0 
1672 -0.6224819109057482 0.20064621903440844 -0.03546566007152019 133 124 123 0.44 64 0 65 0 66 0 67 0 
1673 1.9009565920774334 0.6719904232340621 0.03961908985213314 142 142 135 0.64 64 0 66 0 68 0 
1674 -0.15557905791302118 0.2654200933938384 -0.00037363170653348377 157 149 151 1.59 64 0 66 0 68 0 
1675 -0.5727067983232601 0.18729914079299953 -0.03468241161351382 167 157 149 0.67 64 0 66 0 68 0 
1676 -0.6306154629203848 0.17637631854247676 -0.03882020624087246 144 143 141 0.78 64 0 65 0 66 0 67 0 
1677 0.6941291129935949 0.40657742046145223 0.014864600480514412 112 106 115 0.22 64 0 65 0 66 0 68 0 
1678 -0.33077325663167967 0.21703343864561292 -0.030404379494876288 84 85 96 0.59 64 0 65 0 66 0 67 0 68 0 
1679 -0.48294230029965246 0.18949797307554977 -0.03568396710201238 121 115 118 0.22 64 0 65 0 66 0 68 0 
1680 -0.6268122359552222 0.16262133739198376 -0.047076893590651814 150 144 138 1.12 64 0 65 0 66 0 
1681 -0.75620588603917 0.14268202468754693 -0.04106517264007392 117 104 102 0.09 64 0 65 0 66 0 
1682 0.7502833066978366 0.39776953526048725 0.0164695737845042 177 170 166 0.41 64 0 66 0 68 0 
1683 0.10705053691957711 0.27418065040894074 -0.007317260929875946 165 160 159 0.97 64 0 65 0 66 0 68 0 
1684 0.42787948739146664 0.3260558102531435 0.0028432540612146617 152 142 137 0.39 64 0 66 0 68 0 
1685 -0.6633221529035269 0.14449807964309752 -0.036393198109545555 118 117 117 0.5 64 0 65 0 66 0 67 0 
1686 -0.7371061649998027 0.13036263656979247 -0.03857480124942825 167 161 150 1.23 64 0 65 0 66 0 68 0 
1687 0.04021905616622323 0.23946192114957293 -0.012846055906252207 166 152 145 0.48 64 0 65 0 66 0 
1688 -0.7273558032480982 0.11538580509920376 -0.04148892695836426 150 147 139 0.64 64 0 65 0 66 0 68 0 
1689 -0.6129914913620811 0.12886074848700785 -0.035992554756546724 121 112 103 0.41 64 0 65 0 66 0 67 0 
1690 1.0906364392428403 0.4152015113766921 0.04565930906024618 156 163 167 1.21 64 0 65 0 66 0 68 0 
1691 -0.6932248945327302 0.11160750511043266 -0.04641017650420087 163 165 167 0.8 64 0 65 0 66 0 68 0 
1692 -0.3338702587308062 0.1596703284754814 -0.028326251796264357 139 126 126 0.52 64 0 65 0 66 0 68 0 
1693 -0.660135775793453 0.11342734595896276 -0.03593578862927882 118 129 140 0.69 64 0 65 0 66 0 67 0 
1694 -0.6154025198824946 0.1156973707821159 -0.04161664863519077 172 164 154 0.39 64 0 66 0 67 0 
1695 -0.7102026070770153 0.10268291080159997 -0.03518905794900684 156 145 136 0.84 64 0 65 0 66 0 67 0 68 0 
1696 0.14235176455747967 0.22001246743900377 -0.014705491250785352 109 104 110 0.67 64 0 65 0 66 0 67 0 
1697 -0.7394569016213026 0.08642819811730079 -0.03373424536424152 197 195 187 1.24 64 0 65 0 66 0 68 0 
1698 -0.5541269422710671 0.1037671739981939 -0.03747804061499371 146 143 141 0.55 64 0 65 0 66 0 
1699 -0.39724598582732273 0.12125257650107407 -0.021685964184920525 156 151 145 0.69 64 0 65 0 66 0 68 0 
1700 -0.23082470600771732 0.1307596051725594 -0.03294864946693754 176 177 177 0.74 64 0 65 0 66 0 67 0 
1701 -0.6346357524199371 0.07216603253691845 -0.03680749203138123 161 173 173 0.36 64 0 65 0 66 0 68 0 
1702 -0.5979305298990056 0.0614927494086262 -0.03008713707301447 97 96 97 0.2 64 0 65 0 66 0 
1703 -0.21814395666318398 0.07246227688825635 -0.02588774745549327 125 123 125 0.51 64 0 65 0 66 0 67 0 68 0 
1704 0.2988745451956254 0.13789035508139041 0.003402553314235668 133 122 123 0.31 64 0 65 0 66 0 67 0 
1705 -0.670324821771171 -0.013414394634010063 -0.03879778874287476 154 156 161 0.41 64 0 65 0 66 0 67 0 
1706 -0.3471644290587168 0.004094382735409574 -0.020619609850365483 140 133 135 0.64 64 0 65 0 66 0 
1707 -0.7241616863679448 -0.04005058210499057 -0.031590602674166135 111 112 114 0.06 64 0 65 0 66 0 
1708 -0.565959386791749 -0.025776219036386716 -0.022711899950467185 200 195 189 0.54 64 0 66 0 68 0 
1709 -0.5456010477310125 -0.025983114781149952 -0.0289308811947131 167 166 167 0.33 64 0 65 0 66 0 68 0 
1710 -0.6095333398189704 -0.03705602420132392 -0.02446646190378665 104 96 91 0.58 64 0 65 0 66 0 67 0 68 0 
1711 -0.6303263545763091 -0.039469400886191 -0.03006374806670742 130 126 122 0.4 64 0 65 0 66 0 67 0 68 0 
1712 -0.6983703993556283 -0.05700581316411868 -0.031719144078471206 184 188 195 0.33 64 0 65 0 66 0 
1713 -0.08836102282573566 0.004410684835951473 -0.02085715805692212 148 140 135 1.82 64 0 65 0 66 0 
1714 0.07720839412606995 0.009334581012409193 -0.001978370950106667 124 121 117 0.77 64 0 65 0 66 0 67 0 
1715 -0.7313492769308099 -0.07895600507664863 -0.03709637896331963 163 172 181 0.69 64 0 66 0 67 0 
1716 -0.6474276478379064 -0.0677319443522375 -0.024152732677098054 138 143 145 0.47 64 0 65 0 66 0 
1717 -0.7833578922543811 -0.0838729380298664 -0.03499739391972434 89 74 76 0.34 64 0 65 0 66 0 67 0 68 0 
1718 0.0016122016661850314 -0.005573479861534336 -0.004964271583704605 148 138 134 0.33 64 0 66 0 68 0 
1719 -0.5704214551587099 -0.06561723849934475 -0.023351674796289412 139 136 137 0.37 64 0 66 0 67 0 68 0 
1720 -0.6132806200840557 -0.07509046000622172 -0.029564390322340817 131 128 130 0.32 64 0 65 0 66 0 67 0 
1721 0.5160065062594976 0.03971468689245561 0.004047936159523813 174 176 178 0.81 64 0 65 0 66 0 67 0 68 0 
1722 -0.6690333828985819 -0.08648489286570821 -0.03336253369108255 105 106 116 0.94 64 0 65 0 66 0 
1723 -0.5787043237217673 -0.08382277420996409 -0.03278703538452721 132 134 136 0.76 64 0 66 0 68 0 
1724 -0.5873173102157563 -0.08552218218873103 -0.030123981165184777 76 74 84 0.26 64 0 65 0 66 0 67 0 68 0 
1725 -0.11014426079813067 -0.049308671341259214 -0.01700595337794608 118 114 113 0.54 64 0 65 0 66 0 
1726 -0.5918759378192384 -0.09670955317544433 -0.0278843203642396 157 156 154 0.36 64 0 66 0 67 0 68 0 
1727 -0.5928970519416803 -0.11030153619013183 -0.027425121877274528 146 142 142 0.42 64 0 65 0 66 0 67 0 
1728 -0.5879189235150104 -0.12483179888855728 -0.026250947086732923 123 116 112 0.57 64 0 65 0 66 0 67 0 68 0 
1729 -0.04676966666553617 -0.08812918913688206 -0.006012073633546056 76 65 68 0.51 64 0 65 0 66 0 67 0 
1730 -0.6097428997599157 -0.1386684214176886 -0.02807243836665707 168 170 167 0.31 64 0 65 0 66 0 67 0 
1731 -0.2440264142912001 -0.11819270298900703 -0.009844227434383956 152 147 147 0.97 64 0 65 0 66 0 
1732 -0.6412171646757152 -0.16379019586109994 -0.01777771364779568 130 128 128 1.11 64 0 65 0 66 0 67 0 
1733 -0.7757107611658889 -0.18420538321046626 -0.0345758997415293 114 113 123 0.36 64 0 65 0 66 0 67 0 68 0 
1734 -0.6942396191216142 -0.17875110987107157 -0.028730173333267883 149 152 156 0.52 64 0 65 0 66 0 68 0 
1735 -0.7157755427565389 -0.17882987929873584 -0.022573633943708593 136 137 144 0.65 64 0 65 0 66 0 67 0 68 0 
1736 -0.6483237756204294 -0.18019223464503747 -0.03704804366819969 155 154 153 1.81 64 0 65 0 66 0 
1737 -0.2056772638623081 -0.1510068157942151 -0.008540568749371369 85 79 87 0.39 64 0 65 0 66 0 
1738 -0.6361651372521644 -0.19550066942446265 -0.02728581247465489 126 126 126 0.37 64 0 65 0 66 0 67 0 68 0 
1739 -0.6551414912662878 -0.19776553801647645 -0.030061693583738336 149 150 151 0.34 64 0 65 0 66 0 68 0 
1740 -0.15810946997017306 -0.16113083913183196 -0.006117855112325321 158 153 146 0.66 64 0 66 0 67 0 
1741 -0.05284584951936355 -0.1552288873824203 0.014487923700246874 45 32 36 0.75 64 0 65 0 66 0 67 0 
1742 -0.11842446984084298 -0.16366059268475547 -0.012336593990553535 131 111 108 0.28 64 0 65 0 66 0 
1743 -0.6353514663716482 -0.20990108390243994 -0.02497235560053168 129 129 130 0.47 64 0 65 0 66 0 67 0 68 0 
1744 0.3940129275670686 -0.1432446646486581 0.0147366627479244 127 130 139 0.67 64 0 65 0 66 0 67 0 
1745 -0.6601597076661887 -0.2227231825466363 -0.027424001350991878 145 149 149 0.45 64 0 65 0 66 0 67 0 68 0 
1746 0.43473697947014056 -0.15507254415876004 0.02428256371316917 114 104 107 0.83 64 0 65 0 66 0 
1747 1.0829002018857339 -0.14339126343570896 0.05949519632181954 49 35 40 0.38 64 0 65 0 66 0 67 0 68 0 
1748 -0.14441640735043637 -0.2198504671986225 -0.010379642714055448 119 110 105 0.17 64 0 65 0 66 0 
1749 -0.7529309082174058 -0.25649062059392547 -0.03154745748417054 185 181 175 0.27 64 0 66 0 67 0 
1750 1.2605585873304328 -0.14496707199844128 0.038845845794200695 158 160 162 0.16 64 0 66 0 68 0 
1751 -0.6768658468900175 -0.25593732527878177 -0.025401905675730863 171 187 198 0.24 64 0 65 0 66 0 
1752 1.473506758286888 -0.1645148923825513 -0.11803098733196893 43 57 51 0.43 64 0 66 0 67 0 68 0 
1753 -0.7853632335587575 -0.26821065872894045 -0.025625673753671085 137 137 136 0.37 64 0 65 0 66 0 67 0 
1754 1.5940902327834694 -0.15723573831786308 0.02365851754099113 123 122 117 1.92 64 0 65 0 66 0 
1755 1.5426353529559156 -0.16081831292153215 0.06710503404244483 70 68 79 0.57 64 0 65 0 66 0 67 0 
1756 1.0103187196945438 -0.2119522194369317 0.06468731373017689 61 45 52 0.69 64 0 65 0 66 0 67 0 68 0 
1757 0.8095405960073513 -0.23131593769975095 0.007138254846336345 100 78 79 3.14 64 0 65 0 66 0 
1758 1.2741966121175714 -0.2105794746791239 0.05514650231909468 146 149 153 0.36 64 0 65 0 66 0 
1759 -0.8026298546141708 -0.33040961926460216 -0.027678184500853353 73 58 60 0.2 64 0 66 0 67 0 68 0 
1760 1.5500396735846071 -0.25696921282014823 0.013381788625042468 131 114 102 0.91 64 0 66 0 67 0 
1761 -0.1597702820528608 -0.3071452715717699 -0.005109121908933423 98 84 80 0.18 64 0 65 0 66 0 
1762 -0.1154871704581737 -0.3072637241289752 -0.00549144580697547 101 83 83 0.35 64 0 65 0 66 0 
1763 -0.7812874440448982 -0.34275012839404606 -0.027736695540280465 110 108 110 0.73 64 0 65 0 66 0 67 0 
1764 -0.744195877850832 -0.34139162813665036 -0.02599656867712885 151 153 153 0.32 64 0 65 0 66 0 67 0 68 0 
1765 -0.6928035519892051 -0.34225327889564067 -0.021888355234699564 139 143 147 0.6 64 0 65 0 66 0 68 0 
1766 -0.7803323446388906 -0.36033350077496573 -0.0272747916541618 151 150 150 0.55 64 0 65 0 66 0 67 0 68 0 
1767 -0.6944665680227562 -0.35851737816021867 -0.02846042694876738 114 113 120 0.21 64 0 66 0 68 0 
1768 -0.7844337105866059 -0.388067112341732 -0.021118278448301053 122 111 112 0.47 64 0 66 0 68 0 
1769 -0.8034051270868201 -0.38847586093139913 -0.0270561630476982 69 66 67 0.32 64 0 66 0 68 0 
1770 -0.7299811184959275 -0.4009659156669855 -0.02450750793815404 155 156 156 0.66 64 0 65 0 66 0 67 0 68 0 
1771 0.29182830813901195 -0.39110408917872735 0.00901886932584417 96 81 82 0.19 64 0 66 0 67 0 
1772 -0.1572135788121951 -0.4104609656950344 -0.007452442164849193 111 96 95 0.34 64 0 65 0 66 0 
1773 -0.7642250087620175 -0.4319253792375586 -0.010621398129619486 112 102 101 1.05 64 0 66 0 67 0 68 0 
1774 1.0495987769263482 -0.4314530354210767 0.0732692859834605 45 27 30 0.88 64 0 66 0 67 0 
1775 0.33788239294457434 -0.4342301320501099 0.011468018841905625 119 98 97 0.38 64 0 65 0 66 0 67 0 
1776 0.728176949223206 -0.454874661981994 0.03529096188740022 125 104 97 0.54 64 0 65 0 66 0 
1777 -0.724461993253108 -0.45865786574349426 -0.020472340196784122 134 141 151 0.31 64 0 65 0 66 0 67 0 
1778 -0.7341334539085302 -0.4729897111204533 -0.022468833571088087 104 102 100 0.46 64 0 65 0 66 0 67 0 68 0 
1779 -0.766449541427979 -0.47529728494681245 -0.010718654974859243 96 83 84 0.48 64 0 65 0 66 0 67 0 68 0 
1780 0.8537891783007177 -0.5182570434135875 0.03966017272002542 56 36 40 0.27 64 0 66 0 67 0 
1781 -0.7163936055120173 -0.5039906989192932 -0.024497127084180503 95 98 101 1.98 64 0 65 0 66 0 68 0 
1782 -0.7423536924620562 -0.5049069866973214 -0.02203870184065182 138 137 139 0.23 64 0 65 0 66 0 
1783 -0.7776477812736611 -0.5052980802738499 -0.021320947351702202 67 57 57 0.61 64 0 65 0 66 0 67 0 68 0 
1784 0.42363616671979787 -0.5192188004085747 0.03765487656419597 118 94 93 0.41 64 0 65 0 66 0 
1785 0.48046421791020477 -0.535514466656088 0.012309587404872424 141 137 132 0.71 64 0 65 0 66 0 
1786 -0.7863101475823815 -0.5205202541335866 -0.021489473648767854 82 64 65 0.42 64 0 65 0 66 0 67 0 68 0 
1787 1.1715620000537146 -0.5679668100290932 0.07914374785091516 42 31 34 0.25 64 0 65 0 66 0 67 0 68 0 
1788 -0.783040512890014 -0.5629605701453377 -0.020704697205994105 123 118 115 0.5 64 0 65 0 66 0 67 0 68 0 
1789 0.8587496372889687 -0.6250973318887181 0.049927388557730046 77 50 51 0.24 64 0 66 0 68 0 
1790 -0.10798490442774944 -0.5890487340211746 0.01681840917222366 91 77 75 0.23 64 0 65 0 66 0 
1791 -0.1598906991900957 -0.5863671610151293 -0.012847806247454852 104 101 92 0.88 64 0 65 0 66 0 
1792 -0.7554238133352358 -0.5789099713033461 -0.018295636366840506 97 93 95 0.39 64 0 65 0 66 0 67 0 68 0 
1793 -0.7758025949269067 -0.5788410095961218 -0.017888572525115 87 88 89 0.47 64 0 65 0 66 0 67 0 68 0 
1794 -0.7495670294722105 -0.5950215002095115 -0.014649189340011803 86 87 87 0.42 64 0 65 0 66 0 67 0 68 0 
1795 1.7486026026296508 -0.697854568120327 -0.15796752147120796 17 16 20 3.1 64 0 65 0 66 0 
1796 0.2735869159792398 -0.6363158023935109 0.02716991584408368 54 40 42 0.34 64 0 65 0 66 0 
1797 -0.5286819436786192 -0.5691664206047033 -0.4100786785215529 44 56 56 0.48 64 0 65 0 66 0 
1798 1.5400603669477142 -0.7132591997588347 0.06790169209517694 36 36 39 0.41 64 0 66 0 67 0 68 0 
1799 -0.7610867669530506 -0.6084311772692337 -0.017376675958452603 96 90 90 1.58 64 0 65 0 66 0 67 0 68 0 
1800 -0.7701828369324035 -0.6090937041674938 -0.01604731634680756 92 87 87 0.36 64 0 65 0 66 0 67 0 
1801 -0.7435059332592722 -0.6098577960106355 -0.02071184125707548 96 85 84 1.26 64 0 65 0 66 0 67 0 68 0 
1802 -0.7542504045703489 -0.6234469067842734 -0.01744413208807516 98 94 93 0.7 64 0 65 0 66 0 67 0 
1803 -0.1104219950693115 -0.6483153364387269 0.005828140080710975 74 61 70 0.51 64 0 65 0 66 0 
1804 -0.7389552765698706 -0.625371853368524 -0.017083108547321535 106 102 100 0.52 64 0 65 0 66 0 67 0 68 0 
1805 1.2634244741519989 -0.73204901131267 -0.1107868092510984 69 81 92 0.38 64 0 65 0 66 0 67 0 68 0 
1806 -0.6906859021578047 -0.6537960296640621 -0.006198130404360347 81 82 83 1.27 64 0 65 0 66 0 67 0 68 0 
1807 0.7585557344592848 -0.7228855599142324 -0.055988036604151636 86 96 104 0.3 64 0 65 0 66 0 67 0 68 0 
1808 1.283384987677723 -0.7260320890554739 -0.35924098189069764 54 56 62 2.48 64 0 65 0 66 0 
1809 0.3857493549845584 -0.7174698986104362 -0.0005512548873078948 74 108 105 0.95 64 0 65 0 66 0 67 0 68 0 
1810 -0.14358885322508996 -0.7094541126529323 0.006355885973687414 59 52 54 0.46 64 0 65 0 66 0 67 0 
1811 0.36374369598423695 -0.7423070797919512 -0.1030729130091026 101 112 119 0.54 64 0 65 0 66 0 67 0 68 0 
1812 -0.7428337770440021 -0.6931601963757854 -0.015073016559684627 78 79 77 0.36 64 0 65 0 66 0 
1813 0.7812188674882397 -0.7514110226147659 -0.33651310582303995 97 88 101 0.5 64 0 65 0 66 0 67 0 
1814 -0.13802746173946168 -0.7373239761196924 0.009308952971120998 62 63 64 0.14 64 0 65 0 66 0 
1815 -0.17556045044628998 -0.7355789399889594 -0.030836375173259212 94 104 119 0.61 64 0 65 0 66 0 
1816 -0.18804279489061893 -0.7320748508384647 -0.03898452299571109 88 88 95 1.13 64 0 65 0 66 0 67 0 
1817 -0.5458764436943746 -0.7046210857925461 -0.23642534675126758 17 17 17 0.44 64 0 65 0 66 0 
1818 -0.7575575752530024 -0.7323194148528391 -0.032744250426709476 45 45 44 0.38 64 0 65 0 66 0 
1819 -0.1565513717883511 -0.747974660109181 -0.17960032623292554 96 91 99 0.35 64 0 65 0 66 0 
1820 -0.6956392872588073 -0.7286659126653074 -0.17611658607202174 60 62 53 0.17 64 0 65 0 66 0 67 0 
1821 -0.7789254613719161 -0.7390689057036568 -0.1218996177464653 133 139 157 0.37 64 0 66 0 68 0 
1822 0.05215326083581662 -0.7557246846206456 -0.3915819168957644 76 74 84 0.28 64 0 65 0 66 0 
1823 -0.34503863148635383 -0.747940358369639 -0.38040577678264786 102 119 132 0.74 64 0 66 0 67 0 
1824 -0.44951916710318374 -0.7420395975995709 -0.4222360244446921 147 146 140 0.58 64 0 66 0 68 0 
1825 3.5281823002574884 2.627485142736217 0.7013586276962933 218 244 254 0.37 65 0 66 0 67 0 68 0 
1826 3.554448584467352 2.7057028238282133 0.8022587095615017 144 161 181 0.65 65 0 66 0 68 0 
1827 3.4701985787348884 2.662871344278903 0.7940520471716599 108 153 190 0.97 65 0 66 0 67 0 68 0 
1828 3.6662189025925844 2.6007131289401624 0.6239406488700758 187 229 249 0.16 65 0 66 0 67 0 
1829 3.6451056722592323 2.9690145143647393 1.1620318596780441 179 186 175 0.22 65 0 66 0 67 0 
1830 3.7401424713085953 2.68457379489592 0.7260848317799695 209 230 253 0.22 65 0 66 0 67 0 
1831 3.4181945768145567 2.8439214038335208 1.1547870430179037 103 159 171 0.66 65 0 66 0 67 0 
1832 0.5489964297334659 0.9693937066131766 -0.0030268614941737493 174 181 186 0.3 65 0 66 0 67 0 
1833 -0.11280131875325372 0.7130522458767603 -0.032659238539779034 127 122 127 0.18 65 0 66 0 67 0 
1834 3.5714107202256575 2.5007328963359905 0.657338321943066 214 237 252 0.25 65 0 66 0 67 0 
1835 -0.7879390002978879 0.469974568732525 -0.05420959520542379 97 80 80 0.08 65 0 66 0 67 0 
1836 -0.375455393231795 0.5639167555135975 -0.040641068510514966 164 156 152 0.43 65 0 66 0 67 0 68 0 
1837 -0.534248801970628 0.49791266044420096 -0.04793587389399612 172 167 165 0.92 65 0 66 0 68 0 
1838 -0.7727660540183692 0.4232436269439796 -0.051992290719533374 134 140 136 0.37 65 0 66 0 67 0 
1839 4.136022125561372 2.656023367811374 0.8984231595940645 199 229 241 0.45 65 0 66 0 67 0 
1840 4.939839285925566 2.8874133948729965 0.8581997043526561 205 231 250 0.51 65 0 66 0 67 0 68 0 
1841 0.025637675564397666 0.6570911356420912 -0.025729034268908935 149 162 173 0.1 65 0 66 0 67 0 
1842 -0.810565982377162 0.36886100350817247 -0.05570266996104256 126 112 114 0.4 65 0 66 0 67 0 68 0 
1843 4.4314563963567775 2.7362273716474026 1.1009974887019203 187 210 230 0.35 65 0 66 0 67 0 
1844 4.859802524826769 2.716721692265275 0.8532521946761842 211 224 248 0.8 65 0 66 0 68 0 
1845 -0.6726758413381233 0.41466347935397624 -0.039821391740917145 179 175 170 2.16 65 0 66 0 68 0 
1846 4.900396466880145 2.760380551392351 0.9286823879292726 221 232 246 0.38 65 0 66 0 67 0 68 0 
1847 -0.7289026901273468 0.3916217710133993 -0.035326125289313115 181 177 170 1.63 65 0 66 0 67 0 
1848 4.82988972447264 2.659510591276038 0.8615921745733646 63 80 103 0.53 65 0 66 0 67 0 
1849 -0.3802216566970529 0.48170595519669496 -0.040549141583516635 146 139 142 0.45 65 0 66 0 68 0 
1850 4.19206427328314 2.530012290921274 1.0229758191257186 107 171 196 0.18 65 0 66 0 67 0 
1851 4.85733709424577 2.647969109267146 0.9384159661853391 182 205 241 0.76 65 0 66 0 67 0 
1852 4.885676099700564 2.724983770671485 1.0727916537010067 224 237 253 0.59 65 0 66 0 67 0 68 0 
1853 4.960262263345983 2.647327605637235 0.9091890669367342 88 113 138 0.46 65 0 66 0 67 0 
1854 -0.7757276116401743 0.3339366888154463 -0.03883384150707281 171 166 163 0.47 65 0 66 0 68 0 
1855 -0.7146384222426223 0.3435621367121395 -0.04974498529850391 174 167 158 0.51 65 0 66 0 67 0 68 0 
1856 4.8485651281035995 2.5532048590641088 0.9444543643491263 82 92 110 0.12 65 0 66 0 68 0 
1857 -0.4466367156876123 0.4076738794198897 -0.01641895527674131 170 161 154 0.91 65 0 66 0 67 0 
1858 4.901382274671181 2.469930058765627 0.9644905555380491 55 83 116 0.22 65 0 66 0 67 0 68 0 
1859 5.42014234749881 2.781441612069674 1.263328575716252 165 216 237 0.57 65 0 66 0 67 0 68 0 
1860 0.21259668091398443 0.5765990001009511 -0.01798539261035237 151 124 120 0.92 65 0 66 0 67 0 68 0 
1861 5.226431312539793 2.7428237243044746 1.3602684512969376 180 229 247 0.48 65 0 66 0 67 0 
1862 -0.810113197697363 0.2793350037828905 -0.049473906913695354 95 103 110 0.56 65 0 66 0 67 0 68 0 
1863 5.087281231809516 2.446528828638816 1.135981144822526 132 135 153 0.37 65 0 66 0 67 0 
1864 -0.7658036948262366 0.2558302485994623 -0.045065071377767385 102 111 117 0.33 65 0 66 0 67 0 68 0 
1865 1.5256689409377218 0.879504444023743 0.034210669798903526 96 79 77 0.63 65 0 66 0 67 0 68 0 
1866 5.092183304374323 2.333417036479444 1.0438639828791296 58 73 94 0.55 65 0 66 0 68 0 
1867 -0.40769796785163104 0.3356146889090951 -0.028304249313209517 172 170 169 0.57 65 0 66 0 67 0 68 0 
1868 -0.7054203181654985 0.2447667815096794 -0.05164879010425061 197 201 205 0.38 65 0 66 0 67 0 
1869 5.025630954714437 2.3188866640797614 1.1407542811272189 69 82 94 0.79 65 0 66 0 67 0 68 0 
1870 0.6835548396021103 0.608918495196848 0.00030245498105041513 132 125 131 0.13 65 0 66 0 67 0 68 0 
1871 -0.7420755146820459 0.23172455001188702 -0.04649595439213594 173 171 162 0.15 65 0 66 0 67 0 
1872 7.328498846889154 3.2016065803117533 2.000308688177998 103 185 214 0.51 65 0 66 0 67 0 
1873 -0.3061552904272258 0.2982045289134149 -0.030373801835547498 168 174 178 0.51 65 0 66 0 68 0 
1874 -0.3193036004449876 0.2722567995051605 -0.026084474841656657 147 141 141 0.33 65 0 66 0 67 0 68 0 
1875 -0.8078513297926051 0.1282660128934056 -0.04359550670947265 74 78 85 0.59 65 0 66 0 67 0 68 0 
1876 0.2227553413614627 0.34983962405780916 0.003845824325370062 159 160 165 0.56 65 0 66 0 68 0 
1877 -0.6233477735757329 0.14507680366355297 -0.02943813541165663 111 91 93 0.6 65 0 66 0 68 0 
1878 -0.39002022518459967 0.17679298960865436 -0.03087129235768704 156 154 156 0.38 65 0 66 0 68 0 
1879 -0.7762352423682903 0.09308927113798982 -0.04264974780959685 105 114 117 0.33 65 0 66 0 67 0 
1880 0.1473055374678014 0.27750016111779646 -0.016013716775901576 147 153 156 0.42 65 0 66 0 67 0 
1881 -0.8078897889426107 0.06789105699013559 -0.043338632493764795 90 80 84 0.6 65 0 66 0 67 0 68 0 
1882 -0.7740376500592763 0.06867956516673601 -0.04745178033687836 124 122 124 0.5 65 0 66 0 67 0 68 0 
1883 -0.7915828600470927 0.06626826727606372 -0.04553548508121774 127 112 114 0.31 65 0 66 0 67 0 68 0 
1884 0.6128367064715796 0.3399444280121208 0.017325331888347284 118 118 122 0.84 65 0 66 0 67 0 68 0 
1885 -0.15584450259366034 0.17363982253951543 -0.020284754248074632 175 173 171 1.81 65 0 66 0 68 0 
1886 -0.06847544093417945 0.13052806306018278 -0.021853066094781992 81 95 111 0.37 65 0 66 0 67 0 
1887 -0.5809012880278792 0.04498475079730169 -0.026025464031771195 149 147 149 1.53 65 0 66 0 67 0 68 0 
1888 -0.7172904915104135 0.01630847248645212 -0.034994117941764546 155 151 150 0.33 65 0 66 0 67 0 
1889 -0.5480854835344704 0.015043429844049938 -0.043407896247949385 177 172 169 0.27 65 0 66 0 68 0 
1890 -0.26080266884072767 0.06759874593344128 -0.00443310265106045 131 119 123 0.81 65 0 66 0 67 0 
1891 -0.6105542050136514 -0.0006094845847370856 -0.03333796677916201 125 103 104 0.6 65 0 66 0 68 0 
1892 -0.5800755334090111 -0.012238503365099296 -0.033114076755829114 161 155 149 0.36 65 0 66 0 68 0 
1893 -0.5330506905597114 -0.014964427903211008 -0.02831990945287499 176 177 176 0.43 65 0 66 0 68 0 
1894 -0.6695065641813103 -0.04144957645967218 -0.04166157107387103 140 143 148 0.58 65 0 66 0 67 0 
1895 -0.5294072518017672 -0.03741934557395932 -0.025351026440830537 145 137 138 0.65 65 0 66 0 67 0 68 0 
1896 -0.596729936902473 -0.05507619638322253 -0.035909948423555216 117 106 100 0.29 65 0 66 0 67 0 
1897 -0.6939552639881539 -0.07454743787864893 -0.040175425416084876 113 108 112 0.36 65 0 66 0 68 0 
1898 -0.5584811791653619 -0.05704095542851928 -0.031309029527502696 137 137 141 0.36 65 0 66 0 68 0 
1899 -0.5564187901746274 -0.06354027460748096 -0.0200043859970378 154 150 148 0.59 65 0 66 0 68 0 
1900 -0.5717405379093292 -0.07885607293600622 -0.04079069935949842 155 153 150 0.1 65 0 66 0 67 0 
1901 0.3809065623183643 0.008415661579843248 -0.002542016467317776 133 120 123 0.67 65 0 66 0 68 0 
1902 -0.5713883998438531 -0.10712900427185207 -0.01891507840127704 125 123 122 0.66 65 0 66 0 67 0 68 0 
1903 -0.5742702595055753 -0.12324592988629612 -0.02464987013973885 161 162 162 0.59 65 0 66 0 67 0 68 0 
1904 -0.6364896244086264 -0.14001282373306584 -0.03224788927481592 132 132 132 0.3 65 0 66 0 67 0 68 0 
1905 -0.661863089764418 -0.16590685952987705 -0.017865351466205714 145 143 149 0.82 65 0 66 0 67 0 68 0 
1906 -0.61142225406678 -0.1672618313896147 -0.029869235953769557 152 150 144 0.68 65 0 66 0 67 0 68 0 
1907 -0.7679450980227518 -0.19633980094809317 -0.026445948067367775 105 95 93 0.74 65 0 66 0 67 0 68 0 
1908 -0.7124552563029307 -0.19420832208419142 -0.029071459741386807 145 144 149 0.36 65 0 66 0 67 0 68 0 
1909 -0.6898380520479539 -0.19358612449863477 -0.020042924391947547 165 170 176 0.87 65 0 66 0 68 0 
1910 -0.1349652697555923 -0.1470801336324749 -0.004752624022113849 151 140 132 0.44 65 0 66 0 67 0 
1911 -0.5945898488859489 -0.19785531894757186 -0.028809781980951188 120 116 120 0.51 65 0 66 0 67 0 68 0 
1912 -0.6524918674350055 -0.20873488316344646 -0.023990391949965106 116 117 117 0.59 65 0 66 0 67 0 68 0 
1913 -0.6136965024222782 -0.20872946467568987 -0.024554497279722254 116 116 116 0.3 65 0 66 0 67 0 68 0 
1914 0.866352230067606 -0.08100946259306308 0.03911045923005596 82 67 65 0.47 65 0 66 0 67 0 68 0 
1915 -0.6186672079062852 -0.2254019055136856 -0.03437082265340363 141 142 134 0.56 65 0 66 0 67 0 68 0 
1916 -0.633723383798555 -0.224665574079504 -0.024991110022919205 144 144 141 0.4 65 0 66 0 67 0 
1917 -0.6781156279321408 -0.24068657026354517 -0.0296370151766312 138 139 148 0.8 65 0 66 0 67 0 68 0 
1918 -0.6510258287946922 -0.25313531470059764 -0.023607348311292187 147 144 139 0.55 65 0 66 0 67 0 68 0 
1919 -0.6619042939490527 -0.2544139531136999 -0.025392984771622107 183 189 195 0.41 65 0 66 0 68 0 
1920 -0.6778035592417748 -0.2677544034740612 -0.024293438431117975 164 167 172 0.54 65 0 66 0 67 0 68 0 
1921 -0.6429124128796713 -0.26840565444128445 -0.025217679028978646 174 170 161 0.37 65 0 66 0 67 0 68 0 
1922 -0.6567254106711917 -0.27133782870433987 -0.02555724874909826 157 158 161 0.08 65 0 66 0 68 0 
1923 -0.6346439775545143 -0.2821814262622199 -0.02082302900043964 127 127 125 0.6 65 0 66 0 67 0 68 0 
1924 -0.64716106954568 -0.2829079401943589 -0.021888176751485133 121 117 113 0.54 65 0 66 0 68 0 
1925 -0.7949924318644774 -0.2970388382901135 -0.010613968429202147 100 93 94 1.68 65 0 66 0 68 0 
1926 -0.6715959276424392 -0.2985270430276865 -0.027880055240379953 158 161 166 0.37 65 0 66 0 68 0 
1927 -0.6072772724559794 -0.314662659079312 -0.0669261303965214 93 98 93 4.39 65 0 66 0 68 0 
1928 -0.6625849574210121 -0.312332787726823 -0.024343864173715257 134 133 136 0.31 65 0 66 0 67 0 68 0 
1929 -0.6813701176507092 -0.3138006309560552 -0.03066327996432472 153 158 165 0.12 65 0 66 0 67 0 
1930 -0.5885120789779275 -0.3420499189000849 -0.3217196700933236 42 60 58 0.69 65 0 66 0 67 0 
1931 -0.6695419456707112 -0.32699951965725466 -0.019614673359646284 154 158 165 0.41 65 0 66 0 67 0 68 0 
1932 -0.6988678744658858 -0.3275965323857771 -0.014861636986096327 153 152 158 1.39 65 0 66 0 67 0 68 0 
1933 -0.6527537117014981 -0.3403748864904437 -0.022606716192906884 125 127 126 0.5 65 0 66 0 67 0 68 0 
1934 -0.6539963433727576 -0.35547776522013297 -0.023569674769354565 121 125 124 0.68 65 0 66 0 67 0 68 0 
1935 -0.6403501608721969 -0.35598338541946073 -0.02179789739078286 115 116 115 0.6 65 0 66 0 67 0 68 0 
1936 -0.6633218176027083 -0.35614566894846794 -0.019492488594262447 131 129 130 0.58 65 0 66 0 67 0 68 0 
1937 -0.6625772331725424 -0.370236509404791 -0.021125623810084537 151 152 151 0.44 65 0 66 0 67 0 68 0 
1938 -0.6422143780913196 -0.3705811746821186 -0.020384224264757167 105 104 101 0.3 65 0 66 0 67 0 68 0 
1939 1.2354677928538995 -0.3527520175365025 0.07407543638747205 40 25 29 0.26 65 0 66 0 68 0 
1940 -0.7018750833100922 -0.39928134448349323 -0.013983540762899427 165 171 176 0.82 65 0 66 0 67 0 68 0 
1941 1.2402157458769505 -0.3936311238333843 0.0583641911630568 59 60 63 0.29 65 0 66 0 68 0 
1942 -0.686442085813955 -0.41545785612708225 -0.016539997033939047 106 106 108 0.22 65 0 66 0 67 0 
1943 -0.7196880416574585 -0.41532912959283086 -0.020231457245274864 87 81 81 0.68 65 0 66 0 67 0 68 0 
1944 -0.7513844970078238 -0.416951698360663 -0.02673268153521291 101 97 99 0.41 65 0 66 0 67 0 
1945 -0.7236048442946392 -0.42974202601753275 -0.017946071952737563 82 72 74 0.57 65 0 66 0 67 0 68 0 
1946 1.3432208786109066 -0.43528331907657203 -0.07330383107698712 31 43 42 0.49 65 0 66 0 67 0 
1947 0.2396509053945346 -0.4276757947679561 0.03233044361943027 42 34 39 0.49 65 0 66 0 67 0 68 0 
1948 0.4721274522719354 -0.4352257468121573 0.024168440785764078 122 97 93 0.45 65 0 66 0 68 0 
1949 -0.7350899547390302 -0.4810929392646506 -0.01704285043937559 87 78 77 1.74 65 0 66 0 67 0 68 0 
1950 -0.6988409742898105 -0.5029716802371273 -0.019264591077551296 130 141 147 0.61 65 0 66 0 67 0 68 0 
1951 -0.8005413438294513 -0.5136063559405648 -0.01836570731222098 68 57 55 0.43 65 0 66 0 67 0 68 0 
1952 -0.6810122935621807 -0.5191437502141123 -0.016768257196438485 110 111 116 0.53 65 0 66 0 67 0 68 0 
1953 0.3704008962138573 -0.5555695303752818 0.0271349283332738 138 114 108 0.92 65 0 66 0 68 0 
1954 1.6133583770430004 -0.5993932283590924 -0.2311008049025307 96 105 118 0.71 65 0 66 0 67 0 68 0 
1955 0.27373682567690893 -0.5561262134416582 0.026915631588499522 53 51 54 0.37 65 0 66 0 67 0 68 0 
1956 1.6050068419483179 -0.6266389539751671 -0.24009439168324653 29 29 36 0.31 65 0 66 0 67 0 
1957 -0.7843964587565009 -0.5501159176220182 -0.020865734717864237 100 100 99 0.21 65 0 66 0 68 0 
1958 0.7561979493060491 -0.613199042662028 0.04371812862134328 136 110 99 0.58 65 0 66 0 67 0 68 0 
1959 1.3983530989935238 -0.6632687028360835 0.06695167626140575 42 40 40 0.7 65 0 66 0 67 0 68 0 
1960 -0.7138672135770714 -0.562915276519575 -0.015382784608741984 102 107 113 0.32 65 0 66 0 67 0 68 0 
1961 -0.730484775943091 -0.5636852293561737 -0.019283401633440667 125 135 141 0.37 65 0 66 0 67 0 68 0 
1962 -0.8014690368266346 -0.5631339917802841 -0.011918848348065447 49 49 49 0.44 65 0 66 0 67 0 68 0 
1963 -0.7179332422820437 -0.5795987566318985 -0.014277117863779498 109 104 104 0.64 65 0 66 0 67 0 68 0 
1964 -0.7906418623859477 -0.577960070269526 -0.018743821532318128 89 86 86 0.78 65 0 66 0 67 0 68 0 
1965 1.4567699761774164 -0.7019383406370368 -0.0402390396756076 27 24 22 0.32 65 0 66 0 67 0 
1966 0.2647159510210908 -0.6325518318420774 0.04358833326091349 37 24 27 0.24 65 0 66 0 68 0 
1967 1.5142621555451778 -0.704171892335909 -0.12506154838759032 18 19 18 0.26 65 0 66 0 67 0 68 0 
1968 0.6936184203655061 -0.6716525290975484 0.048890411532054534 86 88 87 0.11 65 0 66 0 67 0 
1969 -0.728303985090414 -0.5957406836330501 -0.01062265629161252 107 105 106 0.64 65 0 66 0 67 0 68 0 
1970 -0.7995159271495393 -0.5912743955448705 -0.01587524107760463 71 59 57 0.42 65 0 66 0 67 0 68 0 
1971 1.7629345515683148 -0.7356502179920412 -0.09304531986364295 44 45 46 1.71 65 0 66 0 67 0 68 0 
1972 -0.7256983550356164 -0.6110382042799776 -0.018734453825251185 107 99 97 0.39 65 0 66 0 67 0 
1973 1.3420682725221893 -0.7416750069911207 -0.23311257426534282 61 53 59 0.45 65 0 66 0 68 0 
1974 1.3143348031560873 -0.7400496041597298 -0.262832503188408 43 41 47 0.45 65 0 66 0 68 0 
1975 1.0832794501975294 -0.7475234552970197 -0.36633387747851764 82 84 99 0.35 65 0 66 0 67 0 68 0 
1976 0.3567177709799285 -0.7439492000814641 -0.14463328760380345 136 145 157 0.46 65 0 66 0 67 0 68 0 
1977 0.1831808117758459 -0.7419708585960224 -0.0987509613333446 128 150 177 0.61 65 0 66 0 67 0 68 0 
1978 0.7904853090383781 -0.7515226072026964 -0.4492795914893597 67 57 67 0.34 65 0 66 0 67 0 68 0 
1979 -0.7758242236007173 -0.7317725198310574 -0.022501612766407275 106 87 71 0.45 65 0 66 0 67 0 68 0 
1980 -0.4530388651367674 -0.7091054828107726 -0.29085742210193577 74 74 79 0.19 65 0 66 0 67 0 
1981 -0.6892363470666631 -0.727124368216429 -0.10150274883042854 60 77 95 0.31 65 0 66 0 67 0 
1982 -0.6101129046609028 -0.7121624782229375 -0.2517984127326949 45 50 45 0.37 65 0 66 0 67 0 68 0 
1983 0.25376415577280065 -0.7653662604716069 -0.4938189180317998 76 73 85 1.36 65 0 66 0 67 0 
1984 3.4441566249880644 2.719704950432384 0.6864192119353327 145 208 239 0.4 66 0 67 0 68 0 
1985 0.6301815599891031 1.0883504610840264 -0.0042273576232612076 184 180 185 0.34 66 0 67 0 68 0 
1986 3.469859894022643 2.6197626589343637 0.5783377150025759 196 231 252 0.15 66 0 67 0 68 0 
1987 3.532655208659492 2.8371684952291485 0.8953287649539229 162 216 239 0.26 66 0 67 0 68 0 
1988 3.427921756247627 2.5990293904645694 0.6984606684519084 222 248 254 0.19 66 0 67 0 68 0 
1989 -0.34313104521406834 0.5825235476385391 -0.04229705350711277 160 168 171 0.35 66 0 67 0 68 0 
1990 3.735386731374669 2.5835501754338064 0.6972176919091104 230 247 254 0.44 66 0 67 0 68 0 
1991 -0.838965040451698 0.6143696176598479 0.4110294493467783 75 91 103 0.4 66 0 67 0 68 0 
1992 4.103121869913133 2.7063922805700473 0.9192116280284974 194 234 246 0.47 66 0 67 0 68 0 
1993 -0.4175181810112596 0.4782801311786002 -0.044024798520246655 154 149 150 0.95 66 0 67 0 68 0 
1994 -0.2474596517032639 0.5481115825857015 -0.02067420418178534 172 165 164 0.34 66 0 67 0 68 0 
1995 4.865290407854103 2.906880723673933 0.9606498890037585 233 246 252 0.31 66 0 67 0 68 0 
1996 4.826430760590268 2.497545954330634 0.7309042573225837 193 218 235 0.24 66 0 67 0 68 0 
1997 -0.8526972326461193 0.6150560563240253 0.739723293513721 44 37 38 0.29 66 0 67 0 68 0 
1998 -0.9196613248806784 0.7669776129415811 1.113731510479972 36 37 37 0.32 66 0 67 0 68 0 
1999 4.780518951975206 2.386155137834861 0.712253703867614 157 182 186 0.31 66 0 67 0 68 0 
2000 5.1396432900535345 2.4825596697406747 0.6777697687773183 211 241 247 0.32 66 0 67 0 68 0 
2001 4.918891289931385 2.48344138849696 0.8339609673552986 195 227 244 0.3 66 0 67 0 68 0 
2002 -0.8981877019439581 0.7461255528117725 1.099183497700265 89 94 94 0.4 66 0 67 0 68 0 
2003 5.149818729392871 2.4749922502676927 0.9507732014162701 206 231 253 0.63 66 0 67 0 68 0 
2004 -0.8267002601399134 0.21921089028027668 -0.009322409055127379 96 99 98 2.72 66 0 67 0 68 0 
2005 5.198013217074198 2.582836518405902 1.1980792310570902 172 204 221 0.36 66 0 67 0 68 0 
