# 3D point list with one line of data per point:
#   POINT3D_ID, X, Y, Z, R, G, B, ERROR, TRACK[] as (IMAGE_ID, POINT2D_IDX)
# Number of points: 440, mean track length: 4.52
6469 -0.733752818289411 0.6488260280047573 3.6838975489193046e-05 108 72 67 0.65 59 0 60 0 61 0 62 0 65 0 
6470 0.6291071139226263 0.7010885570794971 0.0126095244569025 148 146 149 0.4 59 0 60 0 61 0 63 0 
6471 0.6078023040260793 0.7054841105852251 -0.0013444297237932743 91 94 98 0.93 59 0 60 0 61 0 
6472 0.3650757138548217 0.6782183979510549 0.013087087063210157 151 149 146 0.42 59 0 60 0 64 0 65 0 
6473 0.8401474816210981 0.7043294296224533 0.01834465442645215 132 111 101 0.35 59 0 60 0 61 0 
6474 -0.15448080901547803 0.6566096059967159 -0.000816830700049718 104 89 96 1.31 59 0 61 0 63 0 64 0 65 0 
6475 -0.6994432053632152 0.6312595868630279 0.010119566723017297 143 138 135 0.67 59 0 60 0 61 0 62 0 65 0 
6476 0.22504589572648362 0.6674072388059983 0.007604716127488487 111 107 111 0.83 59 0 60 0 64 0 65 0 
6477 0.8804643007782537 0.6954038813944345 0.014020291570856575 83 75 72 0.39 59 0 60 0 61 0 
6478 0.9063256901062176 0.6895028607417656 0.015470688859039227 49 35 32 0.26 59 0 61 0 63 0 
6479 0.09926340295866844 0.6421752438633123 0.009792024604435644 96 83 91 0.43 59 0 60 0 61 0 63 0 64 0 
6480 -0.9005206539888879 0.6218733922436479 -0.015469958541035637 162 153 147 0.28 59 0 60 0 64 0 
6481 -0.12872871773910924 0.6297884287532663 0.006877426547760293 166 154 150 0.55 59 0 60 0 61 0 62 0 63 0 64 0 65 0 
6482 0.5306816466960007 0.6632742422768634 0.009986192063157194 113 106 108 0.5 59 0 60 0 64 0 
6483 0.7061797368264269 0.6687682413230439 0.014155299793282413 138 141 145 0.39 59 0 60 0 61 0 63 0 
6484 -0.04476882210903419 0.6278606515486044 0.00652877413248755 150 150 152 0.53 59 0 60 0 61 0 63 0 64 0 65 0 
6485 0.928860473772013 0.6754363661591583 0.016437452382612308 85 95 98 0.3 59 0 61 0 63 0 
6486 -0.5645796726727221 0.6024693787771758 0.005809380151852129 100 92 98 0.59 59 0 60 0 61 0 62 0 63 0 64 0 65 0 
6487 -0.4058234789545431 0.5973596196918406 -0.003826639007998361 143 132 128 0.41 59 0 61 0 63 0 
6488 -0.07239572792211733 0.6034320073145185 0.001067902930909287 137 122 115 0.43 59 0 60 0 61 0 62 0 64 0 65 0 
6489 -0.24392823485485132 0.5918396955897124 0.005115412952223481 129 120 118 0.75 59 0 60 0 61 0 62 0 63 0 64 0 
6490 -0.22525149004490705 0.5928219185543867 0.0027244094918082527 118 109 109 0.36 59 0 60 0 61 0 62 0 65 0 
6491 0.48313477269561045 0.623647848175381 0.00797645800553316 110 103 109 0.55 59 0 60 0 61 0 63 0 65 0 
6492 -0.7683726697188048 0.5743036691097708 0.0014215346882052852 119 112 111 0.4 59 0 60 0 61 0 63 0 
6493 0.2920518359061177 0.6057891628072472 0.00729537454376041 132 119 115 0.38 59 0 60 0 61 0 63 0 64 0 65 0 
6494 -0.36760504231360447 0.5754832158546263 0.001940984427319967 136 124 122 0.58 59 0 60 0 61 0 62 0 63 0 64 0 65 0 
6495 -0.5051098052940514 0.5686755192843096 -0.0033627120728721804 134 129 123 0.95 59 0 60 0 61 0 62 0 64 0 65 0 
6496 0.7925687365392593 0.6249542334165754 0.0017848192593288284 119 108 103 0.32 59 0 60 0 61 0 
6497 0.5561565432774781 0.5989365997219783 0.010256561418979166 127 117 114 0.48 59 0 60 0 64 0 65 0 
6498 -0.574005102338381 0.5546017491790828 -0.0024607778417560216 114 116 121 0.64 59 0 60 0 61 0 62 0 63 0 
6499 0.4447813781969622 0.5885020976034818 0.008308525270351884 104 99 108 0.39 59 0 60 0 61 0 62 0 63 0 65 0 
6500 -0.23190998392620327 0.5500074582519398 0.0163131634362929 133 139 138 0.61 59 0 61 0 63 0 64 0 
6501 0.23235350599897617 0.573681296131629 0.007534844457554783 140 137 135 0.4 59 0 60 0 61 0 63 0 64 0 65 0 
6502 -0.7721264412625022 0.5425562035687651 -0.0008287155616658413 124 122 127 0.27 59 0 60 0 61 0 62 0 65 0 
6503 -0.39906855623713533 0.5498120984623807 0.0011567598636232342 124 116 113 0.3 59 0 60 0 61 0 62 0 63 0 
6504 -0.37577466115031705 0.5507484629722291 -0.0014512070122889701 117 115 113 0.34 59 0 60 0 61 0 
6505 0.2714557905600057 0.5672697681802827 0.010800435171091432 119 119 125 0.37 59 0 60 0 61 0 62 0 63 0 64 0 65 0 
6506 -0.6015628932621749 0.5441451690514753 -0.008077127407771141 127 118 118 0.92 59 0 61 0 63 0 64 0 
6507 -0.07116860165179503 0.5513364479516191 0.0032834183187792176 115 120 126 0.55 59 0 60 0 61 0 62 0 63 0 64 0 65 0 
6508 0.562443544447127 0.5741811015457048 0.008996874617783372 97 101 108 0.35 59 0 60 0 61 0 63 0 64 0 65 0 
6509 -0.7181025961561909 0.5223794110016118 0.0004956244587501109 116 113 118 0.63 59 0 60 0 61 0 62 0 64 0 65 0 
6510 -0.35561609683426465 0.5329271020708549 -0.002968417753328822 141 141 142 0.92 59 0 60 0 62 0 64 0 
6511 -0.6885431723153306 0.5240170662787554 -0.00468126211895962 115 95 98 0.38 59 0 60 0 61 0 62 0 63 0 64 0 65 0 
6512 -0.5567776730019482 0.5211747028992787 -0.005298423123970412 121 109 112 0.69 59 0 60 0 61 0 63 0 65 0 
6513 0.6332753826359478 0.5598235354054482 0.013417099791272962 155 149 146 0.51 59 0 60 0 64 0 
6514 0.7864634131448296 0.5728562741527331 0.007422428331463995 119 115 114 0.72 59 0 60 0 61 0 63 0 64 0 
6515 0.4201612633422686 0.5503211058617782 0.005269468643654573 84 85 100 0.33 59 0 60 0 62 0 64 0 65 0 
6516 0.2707107462419062 0.5376329225457894 0.0024187240558579542 139 138 139 0.53 59 0 61 0 63 0 64 0 
6517 0.944293166725636 0.5589098599188418 0.014012347308748983 78 78 91 0.6 59 0 61 0 63 0 
6518 0.27858249952767866 -0.5953131323001418 -0.015519485443994344 64 53 57 0.62 59 0 61 0 63 0 64 0 65 0 
6519 0.1290049142765129 -0.5875824090059051 -0.03583647449565857 43 32 35 0.22 59 0 61 0 65 0 
6520 0.30056464642653635 -0.5847979559298495 -0.01153670753954269 80 60 60 0.34 59 0 61 0 63 0 
6521 0.3236983559668419 -0.5842038252660466 -0.013943312417840071 119 112 104 0.4 59 0 61 0 63 0 64 0 65 0 
6522 -0.6232375672085816 0.49317977837884597 0.004571301256928107 84 68 65 0.14 59 0 60 0 61 0 
6523 -0.11970192745071731 0.5055214466994737 0.00387027006413644 170 167 165 0.51 59 0 60 0 61 0 62 0 63 0 64 0 65 0 
6524 0.3025865797716503 0.5227470542628471 0.00562014173285207 93 95 104 0.4 59 0 60 0 61 0 62 0 63 0 64 0 65 0 
6525 0.7534625678317781 0.5470544983944543 0.005893154016173611 131 125 125 0.47 59 0 60 0 61 0 63 0 64 0 65 0 
6526 0.3621909878047815 -0.5848909580978187 -0.01349935358406103 83 69 67 0.48 59 0 61 0 63 0 64 0 65 0 
6527 0.25116594333430287 -0.5714987235745026 -0.029003717593292327 35 24 27 0.39 59 0 61 0 63 0 64 0 65 0 
6528 -0.102578167947376 -0.5544396562288907 -0.016260553618911083 64 65 68 0.36 59 0 61 0 65 0 
6529 0.3243832355294847 -0.5650297509881691 -0.0046151070232523595 120 114 108 0.32 59 0 61 0 64 0 
6530 0.431255445818361 -0.5704884399563954 -0.015753543531771084 131 127 125 0.44 59 0 61 0 63 0 
6531 0.28097063443631803 -0.5501779988375006 -0.015671461297629006 88 82 84 0.36 59 0 61 0 63 0 65 0 
6532 -0.22864164209406126 -0.535531518979171 -0.01606581683089658 130 108 105 0.72 59 0 61 0 63 0 65 0 
6533 -0.7311404828774588 0.4766715296849204 0.003659141883885638 152 147 144 0.71 59 0 60 0 61 0 62 0 63 0 65 0 
6534 -0.7087066762754214 0.4837530347438685 -0.008135065513208608 146 135 131 0.43 59 0 60 0 61 0 62 0 63 0 64 0 65 0 
6535 0.491267067011096 0.5149455698572968 0.007593229689935054 96 99 109 0.28 59 0 60 0 61 0 63 0 65 0 
6536 -0.042887049998343425 0.48943807923636395 0.00532523836224005 130 123 123 0.57 59 0 60 0 61 0 62 0 64 0 65 0 
6537 0.2523627151123174 -0.5459013273197205 -0.026180698076110426 44 29 33 0.44 59 0 61 0 64 0 65 0 
6538 0.12655168684875678 -0.5347831325771255 -0.030339440949032646 53 41 47 0.49 59 0 61 0 63 0 64 0 65 0 
6539 0.21718669279640235 -0.5371191692387821 -0.031450843550317235 56 44 52 0.49 59 0 61 0 63 0 64 0 65 0 
6540 -0.03735489556151968 -0.5294889810844386 -0.03366084277015041 58 46 53 0.47 59 0 61 0 63 0 64 0 65 0 
6541 0.05268542062736727 -0.5331903540317489 -0.032534276738188296 64 52 66 0.44 59 0 61 0 63 0 64 0 65 0 
6542 -0.5666954454395385 0.4738844724754905 0.0009528404950695105 118 118 118 0.47 59 0 60 0 61 0 62 0 63 0 64 0 65 0 
6543 -0.10234367551275717 -0.5228771123137188 -0.016708624893826837 71 71 70 0.32 59 0 61 0 64 0 65 0 
6544 0.4585491497371545 -0.5401169368790871 -0.011497500160498747 91 80 75 0.44 59 0 61 0 63 0 
6545 -0.576664009851275 -0.5100236523937126 -0.016853811463078804 85 88 90 0.39 59 0 61 0 63 0 64 0 65 0 
6546 -0.18077284529613766 -0.5188970936559327 -0.015561674453459505 98 85 81 0.98 59 0 61 0 63 0 65 0 
6547 -0.07891636633716309 -0.5119803844275125 -0.02837764216268128 54 42 45 0.41 59 0 61 0 64 0 65 0 
6548 0.10019807711710232 -0.5221098307696588 -0.028547408683089092 77 88 104 0.4 59 0 61 0 63 0 64 0 65 0 
6549 -0.621884063168771 -0.5030709109796965 -0.023677529213008013 117 113 113 0.39 59 0 61 0 63 0 
6550 -0.5312818313844848 0.47252086336954313 -0.0007917961059298088 100 95 98 0.31 59 0 60 0 61 0 62 0 63 0 64 0 65 0 
6551 0.3075044939090729 0.4971737587803216 0.006772119754389646 149 144 142 0.73 59 0 60 0 61 0 62 0 63 0 64 0 65 0 
6552 0.6005225588155346 0.5117091717876713 0.008263349906103301 71 85 95 0.45 59 0 60 0 61 0 63 0 64 0 65 0 
6553 -0.4326345336628659 0.4723604500413334 -0.001374142166082739 127 120 120 0.33 59 0 60 0 61 0 62 0 63 0 64 0 65 0 
6554 0.2821805525863602 -0.5188826177551124 -0.015341722674309626 75 73 76 0.33 59 0 60 0 62 0 64 0 65 0 
6555 -0.12104349208345863 -0.5078586707118777 -0.012562147317378152 117 104 96 0.49 59 0 61 0 63 0 64 0 65 0 
6556 0.30040037920790114 -0.5214612237629266 -0.00941156486442418 114 106 102 0.15 59 0 60 0 64 0 
6557 -0.6015083178805227 -0.489197833521339 -0.019034187392553855 125 124 124 0.85 59 0 61 0 63 0 65 0 
6558 -0.5663696736666084 -0.4901436746350433 -0.01003573527492421 113 110 109 0.3 59 0 61 0 63 0 64 0 
6559 -0.255159811730819 -0.5001837622516204 -0.017330315711060935 73 70 71 0.47 59 0 61 0 63 0 64 0 
6560 -0.3336410814606261 0.4710368020738967 -0.00044994122560342226 142 138 138 0.83 59 0 61 0 63 0 64 0 
6561 0.4429424396316072 -0.5100275354142149 -0.007704786105915391 92 81 77 0.64 59 0 60 0 61 0 62 0 64 0 
6562 -0.10027864551399555 -0.49300180719228576 -0.0139061284230733 53 48 48 0.39 59 0 60 0 61 0 62 0 64 0 65 0 
6563 -0.5228273105029533 -0.4773253849389181 -0.011412179194802651 112 111 109 0.76 59 0 60 0 61 0 64 0 
6564 -0.4087805904266898 -0.4831402260139802 -0.018672710240858422 117 104 101 0.35 59 0 61 0 63 0 65 0 
6565 0.2826376717191536 -0.5034313468985294 -0.013812066981290687 61 58 60 0.43 59 0 61 0 63 0 
6566 0.3025956226897875 -0.5044302622253495 -0.008184926631244462 82 75 70 0.33 59 0 61 0 63 0 65 0 
6567 0.054467835893403024 -0.4895940551864589 -0.029725372523941408 36 27 28 0.82 59 0 60 0 61 0 64 0 65 0 
6568 0.22063518517649838 -0.4923789587890389 -0.028586049931945606 45 30 33 0.66 59 0 60 0 61 0 62 0 64 0 65 0 
6569 -0.6840495845033118 -0.47247028687132286 -0.016754234072713363 86 70 66 0.27 59 0 60 0 64 0 
6570 -0.6668024296561221 -0.4742906641812374 -0.02425021002716529 84 70 67 0.51 59 0 60 0 61 0 
6571 -0.647813860552682 -0.47401521470098645 -0.012386540755136954 96 87 84 0.28 59 0 60 0 61 0 62 0 65 0 
6572 -0.8506090263383563 0.4596051048272315 -0.0011340031287652272 140 140 141 0.55 59 0 60 0 62 0 65 0 
6573 -0.10181790118655068 0.4693409928729964 0.002253875383166752 88 93 103 0.35 59 0 60 0 62 0 64 0 65 0 
6574 0.36373117370021646 -0.49133026704851385 -0.007294027160299251 102 88 80 0.45 59 0 60 0 61 0 62 0 63 0 64 0 65 0 
6575 -0.03967697106233642 -0.4809936652133353 -0.03051536560002604 44 28 32 0.85 59 0 60 0 61 0 62 0 63 0 64 0 65 0 
6576 -0.5897569474211167 -0.46174867102341977 -0.01678084608757416 156 147 147 0.45 59 0 60 0 61 0 62 0 63 0 64 0 65 0 
6577 -0.2956668911068095 -0.47005810627442945 -0.010581451294220362 100 83 81 0.52 59 0 60 0 61 0 62 0 63 0 65 0 
6578 0.44355657324835235 -0.49330370015900243 -0.005536332727569205 90 78 69 0.57 59 0 60 0 61 0 62 0 64 0 
6579 -0.9098339357604867 -0.4519327718025266 -0.03331011403681418 40 27 30 0.53 59 0 60 0 62 0 64 0 
6580 -0.8760398941262575 -0.4534445768855759 -0.03715647736375421 43 36 41 0.42 59 0 60 0 62 0 64 0 65 0 
6581 -0.6673876987946725 -0.4580353216629699 -0.025522812562174656 79 72 67 0.27 59 0 60 0 61 0 
6582 -0.5633724523893411 -0.46125849093815713 -0.017773329244439758 103 99 96 0.34 59 0 60 0 61 0 62 0 63 0 64 0 65 0 
6583 -0.1880710679864708 0.45885574099751464 0.004326948388357652 131 116 113 0.54 59 0 60 0 61 0 62 0 64 0 65 0 
6584 -0.1301485740295577 -0.46046453218055644 -0.014481761433095118 99 89 84 0.46 59 0 60 0 61 0 62 0 63 0 64 0 65 0 
6585 -1.073378214521099 -0.44316609199691687 -0.030411230456306844 41 42 45 0.48 59 0 60 0 64 0 
6586 -0.09887395763948055 -0.46266064091342 -0.013377123220432299 52 48 48 0.31 59 0 60 0 61 0 62 0 63 0 64 0 
6587 0.30673579806264517 -0.47574425748972365 -0.011264179734928714 94 89 84 0.46 59 0 60 0 61 0 62 0 63 0 64 0 65 0 
6588 -0.1802237971387913 -0.45883084935527796 -0.01669614544669391 95 81 80 0.38 59 0 60 0 61 0 62 0 65 0 
6589 0.5043691280697664 -0.46969210345166645 -0.004565468821430786 44 38 34 0.37 59 0 60 0 61 0 62 0 63 0 
6590 0.3663981150817506 -0.46634411121606795 -0.007880848319662393 94 74 67 0.33 59 0 60 0 61 0 62 0 63 0 64 0 65 0 
6591 -0.6002220510476298 -0.44502407240058467 -0.018623913865184593 84 79 77 0.53 59 0 60 0 61 0 
6592 0.4798279551330097 0.4875260426293776 0.006485692316920922 129 123 121 0.46 59 0 60 0 61 0 62 0 64 0 65 0 
6593 -0.12995594698871882 0.4542499699556982 0.015981597461253126 126 117 124 0.36 59 0 60 0 61 0 
6594 -0.09802823267977205 -0.44644860035404105 -0.014699780837666116 57 53 54 0.37 59 0 60 0 61 0 62 0 63 0 64 0 65 0 
6595 -1.0738153443684522 -0.42951560843598896 -0.03684181709309942 45 41 45 0.36 59 0 60 0 65 0 
6596 -0.034913293917434106 -0.443269534495455 -0.03166351995964027 49 35 40 0.31 59 0 60 0 61 0 62 0 63 0 64 0 65 0 
6597 0.12942108383089176 -0.4471457936977537 -0.029400947085939717 46 32 36 0.46 59 0 60 0 61 0 62 0 63 0 64 0 65 0 
6598 0.056880264791609916 -0.446642806815173 -0.029614533456312077 54 39 48 0.41 59 0 60 0 61 0 62 0 64 0 65 0 
6599 -0.48624965782675283 -0.43717330249732644 -0.016357565785258963 96 71 69 0.64 59 0 61 0 63 0 
6600 0.528821300176103 0.48272205762625486 0.009802448725163213 112 114 120 0.47 59 0 61 0 63 0 64 0 
6601 -0.20034496362209553 -0.43096796657843955 -0.01382092586387724 87 67 68 0.24 59 0 60 0 61 0 63 0 64 0 65 0 
6602 0.33433717638604044 -0.4447687440650641 -0.004958958921260224 109 97 94 0.64 59 0 60 0 61 0 62 0 64 0 65 0 
6603 -0.540352714793804 -0.42057247584243385 -0.032132383852900036 91 81 79 0.82 59 0 60 0 61 0 64 0 
6604 -1.0692974058389333 -0.4140385593796711 -0.02407189734670595 47 45 47 0.36 59 0 60 0 62 0 
6605 -0.5129374271270409 -0.4226646760844159 -0.01529732971367042 95 77 75 0.66 59 0 60 0 61 0 62 0 63 0 64 0 65 0 
6606 -0.7510249647543484 -0.4158520596770403 -0.03676574655977055 62 53 68 0.56 59 0 60 0 62 0 64 0 65 0 
6607 -0.5611452573714819 -0.4173836690410603 -0.01609321352052664 105 100 98 0.45 59 0 60 0 61 0 63 0 64 0 65 0 
6608 -0.06961765741842343 -0.4304290270683603 -0.02550605895799541 53 47 49 0.71 59 0 60 0 62 0 
6609 0.3665624336223783 -0.4409545548829325 -0.003720250512627585 63 45 45 0.31 59 0 61 0 64 0 
6610 -0.8429980077819796 -0.41519135971111476 -0.038586339939347965 46 34 38 0.32 59 0 60 0 62 0 65 0 
6611 -0.20985324865618019 -0.4164221023177054 -0.00685718992871987 118 107 106 0.51 59 0 60 0 61 0 62 0 
6612 -0.15322113582255048 -0.41804219064008136 -0.014748256230434884 127 114 113 0.24 59 0 60 0 61 0 63 0 64 0 
6613 0.307064760469253 -0.4323442719820489 -0.007293051656211152 129 124 118 0.33 59 0 60 0 64 0 65 0 
6614 -1.0063398761904174 -0.40743323504498435 -0.04215823459824307 48 31 35 0.42 59 0 60 0 62 0 65 0 
6615 -0.9155457259954419 -0.41081023828683905 -0.04115577038699469 55 45 57 0.53 59 0 60 0 62 0 64 0 65 0 
6616 -0.6831972147950467 -0.4145504463769891 -0.015843795511728688 85 66 68 0.53 59 0 60 0 62 0 64 0 65 0 
6617 -0.3574182238822382 -0.40827060792835235 -0.011640425972440397 120 115 115 0.59 59 0 60 0 61 0 63 0 
6618 0.15347182740968657 -0.42029935462351997 -0.030839036090225046 57 43 49 0.33 59 0 60 0 61 0 63 0 64 0 65 0 
6619 -1.0694568326193519 -0.39968250737185734 -0.024850555086044546 39 36 41 0.42 59 0 60 0 62 0 64 0 
6620 -0.41442671905612816 -0.40937093333346986 -0.014596056364002503 71 65 67 0.76 59 0 60 0 61 0 62 0 63 0 65 0 
6621 0.6862753318106566 0.48284499579008594 0.010207378394991497 130 128 127 0.53 59 0 60 0 61 0 62 0 63 0 64 0 65 0 
6622 -0.7274887614762736 0.436322308114807 -0.00022373158540679754 89 89 97 0.6 59 0 60 0 61 0 63 0 64 0 
6623 0.3080536451802375 -0.4174714978666136 -0.008576833033534617 108 104 95 0.48 59 0 60 0 61 0 62 0 64 0 
6624 0.3382099463195282 -0.41971842020010597 -0.009305282615068947 90 77 74 0.32 59 0 60 0 61 0 62 0 64 0 65 0 
6625 -1.0383622799644276 -0.39383687101968046 -0.035272797834829075 33 20 23 0.45 59 0 60 0 62 0 65 0 
6626 -0.639522452366578 -0.39917682693377887 -0.012919726302325745 132 126 121 0.2 59 0 60 0 62 0 64 0 
6627 0.2564856406811952 -0.41512957056827526 -0.030465326006357044 38 26 28 0.35 59 0 61 0 63 0 64 0 65 0 
6628 0.14897973168230835 -0.3990871189222781 -0.030972952259005822 61 46 48 0.5 59 0 60 0 61 0 65 0 
6629 -0.6830091975887365 -0.38271045239640933 -0.010690468133914425 45 27 31 0.49 59 0 60 0 62 0 65 0 
6630 -0.11915696749760889 -0.3870296486902443 -0.006734511454465882 101 89 84 0.31 59 0 60 0 61 0 65 0 
6631 -0.0962014010275411 -0.38851103449641183 -0.011868515842202049 52 47 47 0.4 59 0 60 0 61 0 62 0 63 0 65 0 
6632 0.2868000023433219 -0.4003073891543771 -0.011837764838690562 73 64 66 0.55 59 0 60 0 61 0 64 0 65 0 
6633 -1.0374737527206657 -0.36827191036092016 -0.03672439932585994 31 18 21 0.38 59 0 60 0 62 0 64 0 65 0 
6634 -0.6358185213132659 -0.37346396768809964 -0.020708028999678496 82 69 66 0.59 59 0 60 0 61 0 62 0 64 0 
6635 -0.14659674403489248 -0.357296116116467 -0.0025783274463812454 107 94 91 1.11 59 0 60 0 62 0 64 0 
6636 0.3704384566413004 -0.3692980434165025 -0.005631574826355679 93 78 77 0.5 59 0 60 0 61 0 62 0 63 0 64 0 65 0 
6637 0.5050982513423714 -0.3724705533055084 -0.003741661221610228 85 77 69 0.56 59 0 61 0 63 0 
6638 -0.12114270962885403 -0.35922709127888003 -0.007759654878434717 110 104 99 0.4 59 0 61 0 64 0 65 0 
6639 -0.09483562592327512 -0.35955279394803247 -0.009413816987059587 59 53 51 0.44 59 0 60 0 61 0 62 0 64 0 
6640 -0.5377038363399896 -0.34612445484866045 -0.013467806457810639 103 90 90 0.43 59 0 60 0 61 0 62 0 63 0 64 0 65 0 
6641 -1.0657245371758133 -0.33976823947385515 -0.020806298882299002 53 54 56 0.37 59 0 60 0 62 0 64 0 
6642 -0.3127853009118029 -0.3533121359276478 -0.010344099164422416 98 90 89 0.33 59 0 60 0 61 0 62 0 63 0 
6643 -0.19063134187040714 -0.3570143149351549 -0.01173567035944729 127 116 117 0.3 59 0 61 0 64 0 
6644 -0.6816571457094072 -0.340951153952519 -0.015718601658704028 91 70 66 0.43 59 0 61 0 64 0 
6645 -0.6541605398007445 -0.3421363833936068 -0.013932415739703576 110 104 100 1.03 59 0 60 0 61 0 63 0 64 0 65 0 
6646 -0.185791048299084 -0.3413019597756993 -0.01415994153841543 99 89 86 0.4 59 0 60 0 61 0 62 0 63 0 64 0 65 0 
6647 -0.12207387760902406 -0.3426015009210552 -0.009834996186792153 113 106 105 0.8 59 0 60 0 61 0 63 0 64 0 65 0 
6648 0.5276347348695228 -0.35389900831509763 0.039221815384258 95 94 91 0.55 59 0 60 0 61 0 
6649 -1.070237734579808 -0.326322586340267 0.013640262626329296 86 80 76 0.33 59 0 60 0 62 0 
6650 -0.5871075892198673 -0.3278170317473727 -0.01252533931340071 112 107 110 0.89 59 0 60 0 61 0 62 0 63 0 64 0 65 0 
6651 0.34867220307929153 0.4492142373740998 0.002571820785395441 131 136 139 0.49 59 0 60 0 61 0 62 0 63 0 64 0 65 0 
6652 0.38541999078639094 0.45150077020710455 -0.0006635260765909031 128 130 130 0.72 59 0 61 0 63 0 64 0 
6653 -0.34793498533724115 -0.3236394045223714 -0.00571783664881912 137 131 130 0.51 59 0 61 0 64 0 
6654 -0.6812940392743868 -0.32372127539571216 -0.015244524829303838 64 41 44 0.35 59 0 60 0 61 0 62 0 63 0 64 0 65 0 
6655 -1.0673767274942907 -0.3108057409453741 -0.024361068416443078 50 50 51 0.39 59 0 60 0 62 0 64 0 65 0 
6656 -0.467549813767825 -0.3194895148087585 0.01070128847892484 106 100 99 1.01 59 0 60 0 61 0 62 0 
6657 -0.13586807476250623 -0.31442685091623424 -0.010307893507956517 107 99 97 0.51 59 0 60 0 61 0 62 0 63 0 64 0 65 0 
6658 -0.1161209076152421 -0.3164549077268058 -0.0040694359401003116 97 83 78 0.62 59 0 60 0 61 0 64 0 65 0 
6659 0.28887652276308845 -0.32719159972072626 -0.009449003663140772 74 63 65 0.54 59 0 60 0 61 0 62 0 63 0 64 0 65 0 
6660 0.3128915087915905 -0.33000751157680425 -0.0053180928566479106 102 93 84 0.5 59 0 60 0 61 0 62 0 63 0 65 0 
6661 0.5128493757518457 -0.3234770539838304 -0.01187991663809061 102 82 79 0.58 59 0 60 0 61 0 62 0 
6662 -0.2475724818549744 -0.31105024609700843 -0.009463571058744466 151 149 145 0.43 59 0 60 0 62 0 65 0 
6663 -0.21357700650454542 -0.31448919016867977 -0.008621241432214577 105 97 97 0.31 59 0 60 0 62 0 64 0 65 0 
6664 -0.30571722700964654 0.4243819178660715 -0.00533795830182714 142 137 138 0.56 59 0 61 0 63 0 
6665 -0.5922173173220656 -0.3004882424860733 -0.0027632495470888154 117 110 111 0.85 59 0 60 0 61 0 62 0 63 0 
6666 0.28853806066105675 -0.3153913532275538 -0.012283450103700301 90 79 81 0.33 59 0 61 0 63 0 64 0 65 0 
6667 0.31743959189352494 -0.3159908035553914 -0.006816237969934003 102 92 85 0.63 59 0 60 0 61 0 62 0 63 0 65 0 
6668 -0.35196771804906307 -0.3051776105260265 -0.017367671770567514 80 69 70 0.57 59 0 60 0 62 0 
6669 -0.06521508676119567 -0.2980296910640629 -0.027904070455482623 31 20 22 0.35 59 0 60 0 61 0 63 0 64 0 65 0 
6670 0.5550809171934724 -0.31037087940572156 -0.007583581433227163 112 100 99 0.53 59 0 60 0 61 0 
6671 -0.0946425552123608 -0.3008267850792035 -0.010412596289443712 82 74 73 0.21 59 0 60 0 62 0 65 0 
6672 0.2607218661655392 -0.30962306634910247 -0.025682190788454125 30 20 23 0.45 59 0 60 0 61 0 62 0 63 0 64 0 65 0 
6673 -0.27613609483452084 -0.2974330070222929 -0.008350369561379982 89 84 92 0.45 59 0 60 0 61 0 62 0 63 0 64 0 65 0 
6674 0.52546914029008 -0.2963174731979633 0.0011672461523951586 61 53 55 0.47 59 0 60 0 61 0 62 0 63 0 
6675 -0.13109107796284902 -0.28852231812958845 -0.007641784172912723 113 101 99 0.47 59 0 60 0 61 0 62 0 63 0 64 0 65 0 
6676 -1.033620699273586 -0.2636926308664398 -0.035078488544677565 35 22 25 0.38 59 0 60 0 62 0 64 0 65 0 
6677 -0.3590912275979533 -0.2768046628850312 -0.01684071356463655 101 90 89 0.2 59 0 60 0 62 0 
6678 -0.3250754562378081 -0.27849253653012657 -0.005669559736967806 111 102 102 0.59 59 0 61 0 63 0 64 0 
6679 0.24713828350534595 0.42923135279451174 0.006738013297546841 122 112 114 0.44 59 0 60 0 61 0 62 0 63 0 65 0 
6680 -0.19763590594327643 0.41400236088022924 0.003346367589218528 107 111 113 0.41 59 0 60 0 61 0 62 0 63 0 64 0 65 0 
6681 -0.02596504708302697 -0.27212742208625484 -0.03030766712551387 41 27 30 0.61 59 0 60 0 62 0 64 0 65 0 
6682 0.3133726725930286 -0.28379529525371466 -0.01095735293075247 111 100 94 0.58 59 0 60 0 61 0 64 0 65 0 
6683 -0.182193105412615 -0.2691452690826826 -0.009364559260975396 107 92 91 0.38 59 0 60 0 61 0 63 0 
6684 -0.11271704419966998 -0.27294537018348725 -0.006667367326883829 118 107 102 0.43 59 0 60 0 61 0 62 0 63 0 64 0 65 0 
6685 -0.09115586618137378 -0.25956127984642363 -0.0071402375667418685 60 51 54 0.3 59 0 60 0 61 0 63 0 65 0 
6686 -0.7094415867296363 -0.2495667847660132 -0.03373098176723992 43 30 37 1.08 59 0 60 0 62 0 64 0 65 0 
6687 -1.1252410963217094 -0.24912923073856744 -0.018080758891309147 73 63 66 0.53 59 0 60 0 62 0 
6688 -0.5320013662625033 -0.2593001271152302 -0.011861239765895079 117 97 98 0.54 59 0 60 0 61 0 62 0 63 0 64 0 65 0 
6689 0.26297439307576254 -0.25846689621618135 -0.025077708517032747 46 32 37 0.54 59 0 60 0 61 0 62 0 63 0 64 0 65 0 
6690 0.10256565916685931 -0.25266746837897985 -0.02551972689560725 26 16 18 0.52 59 0 60 0 61 0 62 0 63 0 64 0 65 0 
6691 0.34227054768418186 -0.26011575846617907 -0.0016817025470877386 93 87 92 0.42 59 0 60 0 61 0 62 0 63 0 64 0 65 0 
6692 0.6309262005898751 0.44012766236788187 0.005735875776922541 150 141 140 0.89 59 0 60 0 61 0 62 0 63 0 64 0 65 0 
6693 0.04723987902310438 0.41130020056830613 -0.0008374056870807062 129 123 122 0.82 59 0 60 0 61 0 62 0 64 0 65 0 
6694 -0.9987477441173174 -0.23553384933592214 -0.040560607118389796 38 29 32 0.61 59 0 60 0 62 0 64 0 65 0 
6695 -0.49353694486741734 -0.24395083861284908 -0.010712366394874502 82 78 83 0.48 59 0 60 0 61 0 62 0 63 0 64 0 65 0 
6696 0.07461399115609553 -0.25026151330696095 -0.038318668633604634 34 25 28 1.41 59 0 60 0 61 0 63 0 64 0 65 0 
6697 -1.0630691870367015 -0.24009256003476223 -0.02041394051478649 55 54 59 0.36 59 0 60 0 62 0 
6698 -1.033380186263983 -0.23829269339549072 -0.035219586669537874 32 19 23 0.37 59 0 60 0 62 0 64 0 
6699 -0.6537939207386207 -0.2392685054367975 -0.0017388769799123445 85 69 64 0.2 59 0 60 0 61 0 
6700 -0.06392251819808281 -0.24614558800934075 -0.029399686117793835 40 27 33 0.3 59 0 60 0 61 0 62 0 63 0 64 0 65 0 
6701 0.3109133996765669 -0.25542075256437596 -0.0061526056144923565 120 113 106 0.53 59 0 60 0 61 0 62 0 63 0 64 0 65 0 
6702 -1.180267852200449 -0.2350834855910593 -0.02535551118776827 69 61 67 0.53 59 0 60 0 62 0 64 0 
6703 -1.1434595151320706 -0.23750528646151714 -0.01618156972574339 82 68 73 0.5 59 0 60 0 62 0 65 0 
6704 -1.0187138509590534 0.39133242814957 -0.0006923730515203547 83 81 88 0.3 59 0 60 0 62 0 64 0 65 0 
6705 0.2910637455255604 -0.24307077640999214 -0.007929842609688965 65 55 59 0.71 59 0 60 0 61 0 62 0 63 0 64 0 
6706 -0.6054555692915782 -0.2259049757464275 -0.009305448079687586 91 82 83 0.62 59 0 60 0 61 0 62 0 63 0 64 0 65 0 
6707 -0.5831799160734297 -0.2262274967253817 -0.015269598440219134 89 77 77 1.19 59 0 60 0 61 0 63 0 65 0 
6708 0.13726263117423979 -0.23191585512145885 -0.026777205777334084 56 42 48 0.38 59 0 60 0 61 0 62 0 63 0 64 0 65 0 
6709 0.22913473738149923 -0.23485466395200025 -0.027974309249217295 70 55 66 0.52 59 0 60 0 61 0 62 0 63 0 64 0 65 0 
6710 -1.102390190781686 -0.22169715402014245 -0.01029807188455096 128 121 121 0.67 59 0 60 0 62 0 65 0 
6711 -1.0608935410248244 -0.22469418182276357 -0.019175956858260335 54 55 57 0.22 59 0 60 0 65 0 
6712 -0.5593265722785514 -0.23244192813359213 0.007496162964837145 107 99 99 0.82 59 0 61 0 63 0 
6713 0.9118806508647278 0.4414997389374543 0.007211794673714588 87 69 74 0.24 59 0 61 0 63 0 64 0 65 0 
6714 -0.8146806843521778 -0.21759509390793813 -0.06051311453160947 38 30 32 0.26 59 0 60 0 62 0 64 0 65 0 
6715 -0.877083084187344 -0.21550460066915553 -0.05245291944657928 24 19 20 0.98 59 0 60 0 62 0 64 0 
6716 0.06347459441400528 -0.22966317196994324 -0.02042009211491801 65 49 60 0.73 59 0 60 0 61 0 62 0 63 0 65 0 
6717 -0.02927003307607553 -0.22470595959998 -0.028638163542124374 47 32 37 0.5 59 0 60 0 61 0 64 0 65 0 
6718 -0.14597299260806756 -0.2120262803999779 -0.008085163423926161 109 92 90 0.43 59 0 60 0 61 0 62 0 63 0 64 0 65 0 
6719 0.5153483429989569 -0.22092375835572847 -0.001631222407077085 113 106 105 0.47 59 0 60 0 62 0 
6720 0.34561749555889865 -0.21340108376250352 -0.004136902240827849 119 107 102 0.5 59 0 60 0 61 0 62 0 63 0 64 0 65 0 
6721 -0.7397486772986531 -0.20010312464887095 -0.032959611642300324 65 56 67 0.42 59 0 60 0 62 0 64 0 
6722 -0.6341553929969899 0.38363439151540846 -0.0016448953384733036 139 132 132 0.48 59 0 60 0 61 0 62 0 63 0 64 0 
6723 -0.9039303997700012 -0.1948810859451659 -0.026299697805435517 61 49 60 0.23 59 0 60 0 65 0 
6724 -0.8283016819024908 -0.19658798019912013 -0.02961684905848195 52 35 40 0.56 59 0 60 0 62 0 64 0 
6725 -0.4677354374741244 -0.20215797132908833 -0.0036838536108160964 91 78 78 0.46 59 0 60 0 61 0 62 0 64 0 
6726 -0.6759032045603809 -0.1940720953362507 -0.010728094435618382 80 59 58 0.53 59 0 60 0 61 0 62 0 63 0 64 0 65 0 
6727 -0.6517029698426642 -0.1964958508665168 -0.00026751530826940974 79 65 60 0.39 59 0 60 0 61 0 
6728 -1.002712390638176 -0.1882211525510172 -0.042749870093787 53 36 41 0.51 59 0 60 0 62 0 64 0 
6729 -0.5288440305140581 0.37890323246799307 0.005668907250280531 152 141 139 0.55 59 0 60 0 61 0 62 0 63 0 64 0 
6730 -0.40821421079962483 -0.188197360892569 -0.01439262569840028 73 58 58 0.19 59 0 60 0 61 0 62 0 64 0 65 0 
6731 0.2927981975761194 -0.19704600763827845 -0.005365610616956683 65 55 59 0.4 59 0 60 0 61 0 62 0 63 0 64 0 65 0 
6732 0.3119666078451541 -0.19769002173662717 -0.002285757359724788 117 110 103 0.48 59 0 60 0 61 0 62 0 63 0 64 0 65 0 
6733 -0.08775772603268392 -0.1859201858896831 -0.005346502937911082 44 37 40 0.23 59 0 61 0 65 0 
6734 -1.1417595414101294 -0.17589363748031514 -0.019241391214879475 80 69 69 0.44 59 0 60 0 62 0 64 0 
6735 -0.6044873658719248 -0.18334863731961532 -0.008943919882249718 115 107 107 0.39 59 0 60 0 61 0 63 0 64 0 65 0 
6736 -0.4439180243055387 0.37917524436739464 -0.0012006947136183408 164 156 154 0.41 59 0 60 0 61 0 64 0 65 0 
6737 -0.39977376545779514 0.379884986642359 0.0011354264298542248 154 145 141 0.52 59 0 60 0 61 0 62 0 64 0 65 0 
6738 0.447725167394131 -0.18095460251597162 -0.0020939847465493095 85 76 78 0.43 59 0 60 0 61 0 62 0 63 0 64 0 65 0 
6739 -0.6760234877741894 -0.1654052478794 -0.011633788512295481 80 58 59 0.55 59 0 60 0 61 0 62 0 65 0 
6740 0.481002902262902 -0.17975682525257847 0.00043621281405377426 89 88 90 0.9 59 0 60 0 61 0 62 0 63 0 64 0 65 0 
6741 0.31573830847438994 -0.1690397463114346 -0.00368388684190121 131 124 121 0.58 59 0 60 0 62 0 64 0 65 0 
6742 -0.28806582942906 -0.16769100949431828 -0.004264959164797721 105 89 86 0.48 59 0 60 0 61 0 62 0 
6743 -0.38170568073373506 -0.15869366495256612 -0.014550200646517675 114 109 110 0.44 59 0 61 0 63 0 
6744 -0.40884431786951003 -0.16435379301092476 -0.004808509076689514 104 94 95 0.63 59 0 60 0 61 0 62 0 63 0 65 0 
6745 -0.19622668364971227 -0.1668418857598342 -0.007832685116495694 92 82 79 0.69 59 0 60 0 61 0 62 0 63 0 64 0 65 0 
6746 0.23434487899865675 -0.15935124621879188 -0.022815812418763275 45 32 36 0.67 59 0 60 0 61 0 63 0 64 0 
6747 0.42631090640212294 -0.16264032317205213 -0.0010959152469056876 101 100 106 0.49 59 0 60 0 61 0 62 0 63 0 64 0 65 0 
6748 -1.1504906989378159 -0.15031327084717047 -0.016972650849362808 128 129 127 0.43 59 0 60 0 62 0 64 0 65 0 
6749 -1.2326974898637602 -0.1491849366393958 -0.0021758448108727805 95 85 86 0.25 59 0 60 0 65 0 
6750 0.139596403013414 -0.15717307312407539 -0.02651050780630633 46 32 35 0.65 59 0 60 0 61 0 62 0 63 0 64 0 65 0 
6751 -1.319755164322731 -0.1416384035283897 -0.024107618385489027 95 96 98 0.45 59 0 60 0 62 0 
6752 -0.2712732446905303 -0.1550883860260152 -0.0019771631426040662 115 102 101 0.66 59 0 60 0 61 0 62 0 63 0 64 0 
6753 -0.026318631134954532 -0.1510749478561313 -0.028089507271756405 43 30 33 0.55 59 0 60 0 61 0 62 0 64 0 65 0 
6754 0.06818865299024585 -0.1541444095402815 -0.01668308944176524 44 29 32 0.37 59 0 60 0 61 0 62 0 
6755 0.36601987534261166 -0.1586933436674242 -0.0013367540733975891 135 126 122 0.54 59 0 60 0 61 0 62 0 63 0 64 0 65 0 
6756 -0.657233128261494 -0.15057578969445576 -0.015954680780897165 100 88 80 0.62 59 0 60 0 61 0 
6757 0.6741867035258797 0.4049052163880956 0.009667313991717278 165 161 159 0.32 59 0 60 0 61 0 62 0 63 0 64 0 65 0 
6758 -0.18930289376359757 -0.14797007992346256 -0.003849402751766139 148 173 202 0.27 59 0 61 0 64 0 65 0 
6759 0.29476403019123526 -0.15491412199050042 -0.006141493480375631 62 51 52 0.52 59 0 60 0 61 0 62 0 63 0 64 0 65 0 
6760 -0.23639711104703082 -0.14010470399919225 -0.002067216615573449 83 70 71 0.55 59 0 60 0 61 0 64 0 
6761 -0.1635563145101923 -0.1404147150335102 -0.0035452029189193025 89 83 89 0.55 59 0 60 0 61 0 62 0 63 0 64 0 65 0 
6762 -0.0868087929557165 -0.14279116357243915 -0.003986303833395768 67 54 54 0.35 59 0 60 0 61 0 62 0 63 0 64 0 65 0 
6763 0.3960264623814079 -0.1456665592432259 -0.0011859216323306903 118 104 103 0.46 59 0 60 0 61 0 62 0 63 0 64 0 65 0 
6764 -0.7314178497757439 0.37518545606982684 -0.02499006643374757 108 111 115 0.42 59 0 60 0 62 0 
6765 0.5782791756546405 -0.14202200880319002 0.023374366169892073 92 86 84 0.88 59 0 60 0 61 0 
6766 -0.2566297072492873 -0.13748021307172326 -0.00653080952299324 104 92 92 0.5 59 0 60 0 61 0 63 0 65 0 
6767 -0.6768479732927845 -0.13629059655014208 -0.01303305960309026 61 41 43 0.34 59 0 61 0 64 0 
6768 -0.5429578775746504 -0.12213340726991394 -0.01098619449198422 44 45 53 0.56 59 0 60 0 61 0 62 0 63 0 64 0 65 0 
6769 -0.9034798357275664 -0.11968372945865027 -0.031724727089535505 42 28 32 0.42 59 0 60 0 62 0 64 0 
6770 -0.1234428936126674 -0.12886283457104925 -0.004981230186378929 88 80 77 0.49 59 0 60 0 61 0 65 0 
6771 0.10680938519763858 -0.12219448036452567 -0.02442421160776303 52 44 48 0.44 59 0 60 0 61 0 62 0 64 0 65 0 
6772 -1.248578305976887 -0.11776434920718781 -0.01247808264874396 136 135 136 0.67 59 0 60 0 62 0 64 0 65 0 
6773 -0.5608166880574117 0.3620180428289433 -0.0016023641559970755 111 101 106 0.73 59 0 60 0 61 0 62 0 63 0 64 0 
6774 0.7601486714265865 0.3997828762698267 0.009598967627775793 108 93 103 0.44 59 0 60 0 61 0 62 0 63 0 64 0 65 0 
6775 -0.2444576428548558 -0.12342776259794143 -0.00665879554477382 111 104 106 0.54 59 0 61 0 63 0 
6776 -0.5003431190977924 -0.11461926486868078 -0.011456082053947835 111 100 100 0.91 59 0 60 0 61 0 63 0 64 0 65 0 
6777 -0.40986377759599407 -0.11652229249927105 -0.007195129310652127 98 89 93 0.26 59 0 60 0 61 0 
6778 -0.08541639374752895 -0.11604103142558977 -0.003568507996350994 60 44 48 0.53 59 0 60 0 61 0 62 0 63 0 64 0 65 0 
6779 -0.6368612807806869 -0.11236899688814798 -0.005873883827174254 106 91 84 0.59 59 0 60 0 61 0 62 0 65 0 
6780 0.45047810918904896 -0.11916368335128168 0.0013505976195978047 97 89 88 0.53 59 0 60 0 61 0 63 0 64 0 65 0 
6781 -0.6630199997333164 0.35981215010362655 -0.009570067219134185 89 89 94 0.57 59 0 60 0 61 0 62 0 64 0 
6782 -0.41887714473848137 0.35638766740729344 0.004044533142567176 106 108 115 0.68 59 0 61 0 65 0 
6783 -0.1130209913901203 0.36204952372491483 0.002810501392525092 97 100 109 0.76 59 0 60 0 61 0 62 0 63 0 64 0 65 0 
6784 -1.268897689743215 -0.1027167542455262 -0.00980019379084128 111 98 98 1.07 59 0 60 0 62 0 64 0 
6785 0.5995522275060582 -0.10759936138154502 -0.012061824405354948 107 96 97 0.44 59 0 60 0 61 0 62 0 
6786 -1.3069913026489344 -0.10271587204437684 -0.007570786789354554 108 99 99 0.64 59 0 60 0 62 0 64 0 65 0 
6787 -0.29304059351510475 0.3579810618477131 0.0025128704875120667 141 128 124 0.46 59 0 60 0 61 0 62 0 65 0 
6788 0.025102744426945687 0.3626341760885618 0.007919209200384933 146 130 125 0.48 59 0 60 0 61 0 62 0 63 0 64 0 
6789 -0.7739064635206016 0.35278634456269975 -0.004542330054797692 90 98 109 0.44 59 0 60 0 61 0 62 0 63 0 64 0 65 0 
6790 -0.5835609510874077 -0.10072700020483966 -0.00401617196876479 124 107 102 0.63 59 0 60 0 62 0 
6791 -0.5623884649495549 -0.10157513464008115 0.003427119218815184 132 117 111 0.37 59 0 60 0 61 0 
6792 -0.6745102083412287 -0.09463102131255406 -0.009753718444171642 52 34 35 0.36 59 0 60 0 61 0 62 0 63 0 64 0 65 0 
6793 -0.2184682734561647 -0.09743345852815723 -0.007921872593166235 115 103 107 0.4 59 0 60 0 61 0 62 0 65 0 
6794 0.21303291012976558 -0.09580423357076963 -0.004638889204360365 35 27 27 0.31 59 0 60 0 61 0 64 0 65 0 
6795 -0.7394210615736174 0.3491427295209849 -0.0027285393839361943 70 72 84 0.28 59 0 61 0 63 0 64 0 65 0 
6796 -0.23819956570395706 0.35407795311182433 0.00027469118552337827 87 92 103 0.5 59 0 60 0 61 0 62 0 63 0 64 0 65 0 
6797 0.15545404224115858 -0.0934892699417475 -0.0016985547380197258 49 40 40 0.61 59 0 60 0 61 0 62 0 64 0 65 0 
6798 -1.0265633391481144 -0.08069952347783613 -0.02775683074587503 46 34 38 0.37 59 0 60 0 62 0 65 0 
6799 -0.15450697166700517 -0.09590622346061599 0.0165698685327737 134 134 136 0.53 59 0 60 0 61 0 62 0 64 0 65 0 
6800 -0.1345864671167024 -0.09625913103377842 0.016455927149712862 161 164 161 0.29 59 0 60 0 61 0 63 0 64 0 
6801 0.027965007068224718 -0.08837601360447198 -0.01051113710554507 36 28 30 0.47 59 0 60 0 61 0 62 0 63 0 64 0 65 0 
6802 -0.6553467389669003 -0.07933512597615075 -0.019103770532772985 100 90 84 0.57 59 0 60 0 61 0 62 0 
6803 -0.08412623558340576 -0.08674997632054494 -0.00552402137584823 43 39 41 0.33 59 0 60 0 61 0 63 0 64 0 65 0 
6804 0.6561050878378248 0.38389516881204033 0.0006824480417896798 161 159 154 0.95 59 0 60 0 61 0 62 0 63 0 64 0 65 0 
6805 -0.3956966768424547 -0.07683324416135605 -0.008490221250933563 141 142 145 0.61 59 0 60 0 61 0 62 0 
6806 0.43238460235559045 -0.07883470631413018 -0.00030025850723964083 113 115 118 0.46 59 0 60 0 61 0 62 0 63 0 64 0 65 0 
6807 -0.31440912735006393 -0.07988396250397178 -0.008652930286996404 105 98 101 0.45 59 0 60 0 61 0 62 0 63 0 65 0 
6808 -0.6219481065286799 -0.07889700489092266 0.019941087850433224 142 139 139 0.55 59 0 60 0 61 0 
6809 -0.44690165124123943 -0.0733488170878666 -0.008694190614795375 98 84 83 0.37 59 0 60 0 61 0 
6810 0.31563494958738564 -0.07103294922953454 -0.0023191034260861636 141 132 124 0.5 59 0 60 0 61 0 62 0 63 0 64 0 65 0 
6811 0.6569242469678733 -0.07258044230921867 0.006956257811650837 122 122 121 0.46 59 0 60 0 61 0 
6812 -0.4906538472981013 -0.07634071765982806 0.014857137700209546 115 101 98 0.41 59 0 60 0 61 0 
6813 -0.10766365310911509 -0.07519107629502754 -0.0009144469837527612 121 113 110 0.4 59 0 60 0 61 0 62 0 
6814 -0.6095778519886896 0.3437121884703184 -0.002082059537276606 119 109 106 0.52 59 0 60 0 61 0 
6815 -0.5604578298689069 0.34366530277503987 -0.006494625238965882 75 73 81 0.47 59 0 60 0 61 0 62 0 64 0 65 0 
6816 -0.40844160555534814 0.3428687480973911 0.001269355742132044 87 82 84 1.1 59 0 60 0 64 0 65 0 
6817 -0.6720910088259767 -0.06685888921725185 -0.005639379015114993 64 54 56 0.38 59 0 60 0 61 0 62 0 63 0 64 0 65 0 
6818 0.23744241830108 -0.06910430050796755 -0.004481732132086343 128 120 116 0.85 59 0 60 0 61 0 62 0 63 0 64 0 65 0 
6819 0.5902438370970405 -0.06872157522207327 0.00571123339450926 118 111 112 0.78 59 0 60 0 61 0 62 0 63 0 64 0 
6820 -0.22228134221394177 -0.07135040160305237 -0.0043728157859537 119 105 102 0.36 59 0 60 0 61 0 62 0 65 0 
6821 -0.8174261975754425 -0.060937845468610405 -0.014951148464211745 31 25 24 0.45 59 0 60 0 64 0 
6822 -0.7574564220678569 -0.06229461326389056 -0.008501230274347968 56 48 48 0.59 59 0 60 0 62 0 64 0 65 0 
6823 0.08346270595839711 -0.06604739436362932 -0.003499931535717323 114 108 104 0.56 59 0 60 0 61 0 62 0 63 0 64 0 65 0 
6824 0.29596314553784603 0.357297029804412 0.0036629542987727153 153 144 139 0.47 59 0 60 0 61 0 62 0 63 0 64 0 65 0 
6825 0.5257394424766334 0.36234816649527296 0.010620593646898982 132 123 120 0.94 59 0 60 0 61 0 62 0 63 0 64 0 65 0 
6826 0.7686727535511108 0.3742048693112702 0.007184215932154943 153 144 144 0.34 59 0 60 0 61 0 62 0 63 0 64 0 65 0 
6827 -0.054105692621403356 -0.06244988475952706 -0.0023406976237844946 121 113 106 0.59 59 0 60 0 61 0 62 0 63 0 64 0 65 0 
6828 -0.9136654312515899 -0.05759945919871581 -0.010255847336315783 49 40 42 1.0 59 0 60 0 64 0 65 0 
6829 -0.09899898806731594 -0.05662137016215111 -0.011317503239505585 115 105 98 0.94 59 0 60 0 62 0 65 0 
6830 -0.03728832035783832 -0.06107577065430081 -0.0024740008137544654 121 116 108 0.44 59 0 60 0 61 0 63 0 64 0 
6831 -0.024026550905218973 -0.06136911064831627 -0.0018065919276218335 116 110 105 0.47 59 0 60 0 61 0 62 0 63 0 64 0 65 0 
6832 -1.3058629193228781 -0.05112368553071445 -0.024333715211943642 82 80 86 0.56 59 0 60 0 62 0 
6833 -0.9457853156799321 -0.05547105901017179 -0.010709693962311388 34 29 31 0.63 59 0 60 0 65 0 
6834 -0.9259974601649009 -0.05831090976876557 -0.001556653746951222 44 32 33 0.36 59 0 60 0 62 0 
6835 0.348948635991584 0.3470047526357008 0.019894565009688593 136 129 127 0.9 59 0 60 0 62 0 64 0 
6836 -1.0520410514753764 -0.05124229447532735 -0.011908815152542175 35 45 55 0.38 59 0 60 0 62 0 64 0 65 0 
6837 -1.0229095537531798 -0.04811927851994849 -0.0274724506423896 62 54 62 0.38 59 0 60 0 64 0 
6838 -0.25786834612507137 -0.05653004775598455 -0.0032137469250201863 101 99 102 0.51 59 0 60 0 61 0 62 0 63 0 65 0 
6839 -0.5454338172628153 -0.05650152330235588 -0.014688019123201975 108 98 99 0.64 59 0 60 0 61 0 
6840 -1.1574406190695448 -0.04327040028895734 -0.03189269928763599 88 80 84 0.49 59 0 60 0 62 0 
6841 -1.2264439381476386 -0.04630814846487028 -0.02737732764161039 97 92 96 0.31 59 0 60 0 62 0 
6842 -0.13680535961302806 0.33548963749963334 0.010000957634140767 143 135 131 0.23 59 0 60 0 61 0 
6843 0.009934332911739386 0.34396175140744006 3.0392779260078865e-05 105 103 111 0.5 59 0 60 0 61 0 62 0 63 0 64 0 65 0 
6844 0.3286482240325898 0.3512007668796373 0.006954896934879432 117 112 115 0.6 59 0 60 0 61 0 62 0 63 0 64 0 65 0 
6845 -1.184259152890002 -0.04579859464002149 -0.019398992228954012 102 85 83 0.27 59 0 60 0 62 0 
6846 0.3136552879871345 -0.04371684922822081 0.000253911833359841 123 117 109 0.38 59 0 60 0 61 0 62 0 63 0 64 0 65 0 
6847 -0.15466710374850753 -0.04331814679628885 -0.0010168471764983925 134 121 120 0.89 59 0 61 0 63 0 64 0 65 0 
6848 0.5914470264970151 -0.02883591095063022 -0.046265566653030166 108 101 98 0.63 59 0 60 0 61 0 
6849 -0.4573526381044411 0.3296958931439904 -0.001823760091409446 94 107 116 0.32 59 0 60 0 61 0 62 0 63 0 64 0 65 0 
6850 -0.23376488314809152 -0.03945441497244694 -0.005348851198276143 128 114 115 0.47 59 0 60 0 61 0 62 0 64 0 65 0 
6851 0.1816445848687434 -0.04103236633576248 0.00020579995080866566 128 120 110 0.42 59 0 60 0 61 0 62 0 63 0 64 0 65 0 
6852 0.44164282705345803 -0.0391329154560786 -0.00018174788511915682 73 69 70 0.47 59 0 60 0 61 0 63 0 64 0 65 0 
6853 -0.7499573503526116 -0.036607504308105 -0.01406483518966147 128 130 129 0.32 59 0 60 0 62 0 
6854 -0.7240943830297271 -0.032950079155707385 -0.027907377023856008 99 91 87 0.69 59 0 60 0 61 0 62 0 
6855 -0.6876650404459889 -0.039650122624474725 -0.007999640227651494 118 113 108 0.44 59 0 60 0 61 0 62 0 
6856 0.40641650027389964 -0.03746876487885664 9.30590677152246e-05 70 60 66 0.52 59 0 60 0 61 0 62 0 63 0 64 0 65 0 
6857 -1.3318654275379336 -0.02899510817384435 -0.02644360489427709 67 73 78 0.42 59 0 60 0 62 0 
6858 -0.26951810713127267 -0.03498994421086724 -0.001360408761195079 127 127 130 0.36 59 0 60 0 61 0 62 0 63 0 65 0 
6859 0.016791991076226736 -0.0363351126498582 -0.003008925218201288 120 116 111 0.41 59 0 60 0 61 0 64 0 65 0 
6860 0.34109584835744494 -0.03583347418757028 0.0034764003748143754 125 117 111 0.41 59 0 60 0 62 0 64 0 65 0 
6861 -0.9468634329977751 -0.03165238625937458 -0.007594282515183124 117 112 106 0.41 59 0 60 0 62 0 
6862 -0.8451271094231828 -0.03722278827654597 0.010631806408128719 123 114 109 0.59 59 0 60 0 62 0 
6863 -0.43737857419637627 0.32705535531396085 -0.0008824781569631542 138 135 136 0.39 59 0 60 0 61 0 62 0 65 0 
6864 0.22284581868029815 0.3413409830838263 0.0029420669167009032 149 167 175 0.72 59 0 60 0 61 0 64 0 65 0 
6865 -0.35761403216899956 -0.03312650080448722 -0.003730946944787785 66 53 49 0.41 59 0 60 0 61 0 62 0 63 0 64 0 65 0 
6866 -0.03213888596984569 -0.03405812140755761 -0.001792232944943006 134 125 116 0.68 59 0 60 0 61 0 62 0 63 0 64 0 65 0 
6867 -1.0607415942201489e-05 -0.034332363008714846 0.0006410150158907526 121 112 101 1.0 59 0 60 0 61 0 62 0 64 0 
6868 -0.3165613699076193 -0.03556553129578201 -0.0007400869877021315 85 73 66 0.65 59 0 60 0 61 0 62 0 63 0 64 0 65 0 
6869 -0.6480323749854596 -0.03076133120702846 -0.0027973543397836155 110 100 97 0.48 59 0 60 0 61 0 62 0 63 0 65 0 
6870 0.3174883017703638 -0.029021526874007855 -0.0011421516371188099 109 101 96 0.38 59 0 60 0 61 0 62 0 63 0 64 0 65 0 
6871 -0.6125328201710895 -0.03105715624455169 -0.008867699852592623 96 78 77 0.4 59 0 60 0 61 0 62 0 63 0 64 0 65 0 
6872 -0.523346046812517 -0.03053288218723536 -0.011107068678344578 107 94 96 0.29 59 0 60 0 61 0 62 0 
6873 0.7161036347556222 0.35981929487686215 0.007573014862210367 145 137 137 0.39 59 0 60 0 61 0 62 0 63 0 64 0 65 0 
6874 -1.188393574975774 0.32123256180773885 -0.005670757015546323 104 77 75 0.34 59 0 60 0 62 0 64 0 
6875 -0.3130525680495087 0.32717182478897083 -0.001358500729392707 143 139 139 0.62 59 0 60 0 61 0 62 0 63 0 64 0 65 0 
6876 0.25341764264738426 -0.02531188141482259 0.0013991659240856732 109 89 91 0.63 59 0 60 0 61 0 62 0 63 0 64 0 65 0 
6877 -0.4948498014557741 -0.02657730706179603 -0.006187970230389755 155 158 158 0.47 59 0 60 0 61 0 62 0 63 0 64 0 65 0 
6878 -1.0717047347468207 -0.02334617797519773 -0.016362458676662573 109 109 109 0.69 59 0 60 0 62 0 65 0 
6879 0.16121281927397527 -0.025438429958677556 0.004378519349041465 118 103 95 0.57 59 0 60 0 61 0 62 0 63 0 
6880 0.7918034454029468 0.35611765161655584 0.004657393772333058 173 171 167 0.33 59 0 60 0 61 0 62 0 64 0 65 0 
6881 0.42461893132154116 0.33586727938616306 0.005625350995070846 129 121 121 0.67 59 0 60 0 61 0 62 0 63 0 64 0 65 0 
6882 -1.2433880062741494 -0.002860939927928496 -0.07591849277335384 121 114 119 0.96 59 0 60 0 62 0 
6883 0.33885671899091574 -0.015524282187529955 -0.0003259919901994853 119 111 105 0.36 59 0 60 0 61 0 62 0 63 0 64 0 65 0 
6884 0.6113408091147849 -0.015316940226324294 0.004413220828020742 127 122 125 0.36 59 0 60 0 61 0 62 0 63 0 64 0 
6885 -0.578874551097613 -0.017069462149223818 0.0008010093229243619 141 131 134 0.14 59 0 61 0 63 0 
6886 -0.6357235433339745 -0.011136410347102537 -0.006049931792197338 130 126 118 0.53 59 0 60 0 61 0 62 0 63 0 65 0 
6887 -0.13195843018382675 0.32024126880473697 0.0005400181703066508 139 136 138 0.45 59 0 60 0 61 0 62 0 63 0 64 0 65 0 
6888 0.3830816880223561 0.32776571391881976 0.019574972370332025 97 92 99 0.63 59 0 60 0 61 0 
6889 -0.2685988510656133 -0.011398748711050158 0.0003121318304077734 142 147 152 0.34 59 0 60 0 61 0 64 0 
6890 -0.14966135053478322 -0.00966559297593666 -0.006123181772544675 123 114 114 0.57 59 0 60 0 61 0 63 0 64 0 65 0 
6891 0.15313709236974332 -0.010283720930862486 -0.0007026416926376822 134 118 107 0.43 59 0 60 0 61 0 62 0 63 0 64 0 65 0 
6892 0.18569043418122264 -0.010402185418375561 -0.0004330562891262209 123 113 105 0.59 59 0 60 0 61 0 62 0 63 0 64 0 65 0 
6893 -0.8997886492293716 -0.005099178885644515 0.00044032042681340234 126 122 113 0.39 59 0 60 0 62 0 
6894 -0.8736836992208086 -0.004017517370929693 -0.012028278007470854 146 139 132 0.35 59 0 60 0 62 0 
6895 0.11100299553117761 -0.008241940104239431 0.0002777135371581483 112 103 95 0.56 59 0 60 0 61 0 63 0 64 0 65 0 
6896 -0.06598772625090474 0.3192859747400045 -0.0034797407268432833 137 136 135 0.4 59 0 60 0 62 0 
6897 0.27818004774863975 0.32531389121894205 0.0029331014700336223 136 128 124 0.57 59 0 60 0 61 0 62 0 63 0 64 0 65 0 
6898 -0.3151762570078782 -0.0028022402484938853 -0.009113611925223414 168 174 176 0.82 59 0 60 0 61 0 63 0 65 0 
6899 -0.05207216296443295 -0.006062054806201237 -0.0018531776073993699 95 86 82 0.44 59 0 60 0 61 0 62 0 63 0 64 0 65 0 
6900 0.019076541475084918 -0.005290733309875885 -0.002175526942546323 122 107 99 0.8 59 0 60 0 61 0 62 0 63 0 64 0 65 0 
6901 0.542558484943386 0.004188043191749553 -0.0024601337858248472 124 120 121 0.57 59 0 60 0 61 0 62 0 63 0 64 0 65 0 
6902 -1.0540978679829578 0.007203852909333267 -0.027734162697274377 98 102 104 0.57 59 0 60 0 62 0 64 0 
6903 -0.5509235617615474 -0.0012814641612201917 -0.008335396116384878 99 94 100 0.7 59 0 60 0 61 0 64 0 65 0 
6904 -0.024708627085591652 -0.004288871712303677 -0.002648258537682804 111 93 86 0.46 59 0 60 0 61 0 62 0 63 0 64 0 65 0 
6905 -0.008975540043406756 0.31500545428517857 -0.00033319394580107127 111 94 95 0.57 59 0 60 0 62 0 64 0 65 0 
6906 -0.5322695880998138 0.3075326607497981 -0.004424831994337623 125 127 131 0.52 59 0 60 0 61 0 63 0 64 0 65 0 
6907 0.2090953605623757 0.002291872663807094 -0.0013692702296837032 137 123 115 0.37 59 0 61 0 63 0 64 0 
6908 0.46298852549562036 0.004320073391802185 0.005282121691257381 138 134 133 1.03 59 0 60 0 61 0 63 0 64 0 65 0 
