# 3D point list with one line of data per point:
#   POINT3D_ID, X, Y, Z, R, G, B, ERROR, TRACK[] as (IMAGE_ID, POINT2D_IDX)
# Number of points: 463, mean track length: 4.54
1197 1.419858096434926 0.6015507989652693 -0.0014991116030479423 42 36 34 1.17 22 0 23 0 24 0 26 0 
1198 0.8968556954889186 0.7126238803633098 0.19555950954797086 12 18 16 0.55 22 0 23 0 26 0 
1199 0.8647941781085451 0.7023049862278667 0.1609634470734903 22 31 24 1.47 22 0 23 0 24 0 28 0 
1200 0.6400445402791988 0.6726511543863591 0.06934642148572989 64 53 52 0.39 22 0 23 0 24 0 25 0 26 0 
1201 0.03583306539882064 0.7325268383563168 0.11668875344249574 60 48 47 0.81 22 0 23 0 24 0 25 0 26 0 27 0 28 0 29 0 
1202 -0.901898031253527 0.8616818936694826 0.25947657183979655 49 39 41 0.87 22 0 23 0 25 0 28 0 29 0 32 0 
1203 1.2783834522213724 0.6197609079673616 -0.008271535788770268 45 45 43 0.5 22 0 23 0 24 0 26 0 28 0 
1204 -0.5663077019382358 0.8108150296268426 0.18141003435770486 11 10 9 0.32 22 0 23 0 24 0 25 0 27 0 
1205 0.03448190472775586 0.7581341965652391 0.132896430861018 102 90 92 1.26 22 0 23 0 24 0 25 0 28 0 
1206 1.2517213984042792 0.6819405896001172 0.09821344584064329 68 78 21 0.47 22 0 23 0 24 0 26 0 
1207 1.1772431148585856 0.6815960712732718 0.09109253786700588 53 56 45 0.53 22 0 23 0 24 0 26 0 28 0 
1208 -0.35907122992756046 0.8201472047619625 0.20352466405395242 27 24 28 2.26 22 0 23 0 24 0 25 0 26 0 27 0 28 0 29 0 
1209 0.7247370932447275 0.6803937830474707 0.039221041665523315 86 79 81 0.87 22 0 24 0 25 0 26 0 28 0 
1210 -0.05855864943007988 0.8241443100569106 0.25669292539297384 24 25 30 0.96 22 0 24 0 25 0 
1211 0.175869388233864 0.8034906452706845 0.24699223170943874 29 29 35 3.27 22 0 23 0 24 0 28 0 
1212 0.0982233364327404 0.7782904261819736 0.1763947656321777 105 95 98 0.7 22 0 23 0 24 0 25 0 26 0 27 0 28 0 32 0 
1213 1.4597053305346634 0.6265368766336092 -0.026377249254346258 76 65 68 0.99 22 0 24 0 26 0 
1214 -0.28996820126578415 0.8200847375951241 0.20023363819906848 17 17 15 1.95 22 0 25 0 27 0 28 0 
1215 0.8163005951078681 0.72267315033956 0.125828867756962 21 21 20 0.84 22 0 24 0 25 0 26 0 28 0 32 0 34 0 
1216 -0.29372883284825124 0.9146028040081529 0.34158485516887305 70 64 62 1.58 22 0 24 0 28 0 
1217 1.4099805537554402 0.674662802383269 0.011407603752090711 95 106 80 0.39 22 0 24 0 26 0 
1218 0.39259559423891643 0.7948930989821457 0.1669793038286288 65 47 46 0.42 22 0 23 0 24 0 25 0 26 0 27 0 28 0 
1219 1.1676209408758063 0.7531063431290328 0.16348598056225339 78 101 66 1.69 22 0 23 0 24 0 26 0 34 0 
1220 0.46570163592986547 0.7949824335402125 0.16616913371313047 51 45 46 0.5 22 0 24 0 25 0 26 0 27 0 28 0 
1221 0.7085718055941821 0.7846794969802071 0.17639583370072265 123 110 110 0.43 22 0 23 0 24 0 25 0 26 0 28 0 32 0 
1222 1.1540316362509948 0.7555634767085087 0.14857468896665782 95 113 84 0.51 22 0 23 0 26 0 32 0 
1223 1.2257916679481151 0.7718685440688815 0.1787247916004463 62 82 52 0.75 22 0 23 0 24 0 26 0 
1224 1.1177536874647935 0.7428443821858146 0.08269393707728845 76 66 57 2.05 22 0 23 0 24 0 26 0 
1225 0.6720117889759663 0.8009008343011985 0.16898108123047983 69 56 55 0.65 22 0 24 0 25 0 26 0 
1226 0.6953599988864159 0.8038053868370314 0.1664850498771756 68 53 53 0.87 22 0 23 0 24 0 25 0 26 0 
1227 -0.035387536595802016 0.8997376016335237 0.25988566212850917 104 73 71 3.31 22 0 24 0 25 0 
1228 1.1657374757521664 0.7823146012451943 0.16193116453540035 45 57 36 0.52 22 0 23 0 24 0 
1229 0.8605158652724851 0.8022337641175983 0.16216815647384963 65 59 54 0.46 22 0 23 0 24 0 25 0 26 0 
1230 0.4255873921641491 0.8658863358262519 0.2549018626626053 93 63 59 1.6 22 0 24 0 26 0 
1231 1.2351857332080658 0.8019118387393216 0.18218549410479545 97 107 63 0.79 22 0 24 0 26 0 
1232 0.350168796475672 0.9136342624849534 0.3273882272357186 103 55 50 0.81 22 0 23 0 24 0 25 0 26 0 27 0 28 0 
1233 1.128044204881317 0.8058430487135075 0.15721688637561348 118 110 103 0.53 22 0 23 0 24 0 26 0 
1234 0.306528881078835 0.9087915774171023 0.28242497019853363 103 70 67 3.91 22 0 25 0 26 0 27 0 
1235 1.2165393069821913 0.8097768437874999 0.16730866000160016 27 30 27 0.29 22 0 23 0 24 0 
1236 0.7218451954695142 0.8852544916130078 0.2892050246753314 108 73 68 2.65 22 0 23 0 24 0 25 0 
1237 0.7895571752997297 0.866570482569293 0.24414767756404776 95 74 72 0.67 22 0 23 0 24 0 
1238 1.278201181324274 0.8181664398579092 0.1825780168526282 90 82 56 0.61 22 0 23 0 24 0 
1239 0.8912568923222992 0.8691386790730735 0.24712010620796165 109 73 71 0.17 22 0 23 0 26 0 
1240 1.006937765996923 0.8454214099489932 0.18055828730349555 108 79 75 2.39 22 0 23 0 24 0 
1241 1.2419934549848013 0.8306616240344622 0.1615297164164945 60 43 39 2.46 22 0 23 0 26 0 
1242 1.2806521153928156 0.8275328118997825 0.14994730869691486 75 55 52 0.71 22 0 23 0 24 0 
1243 1.2077829350469262 0.8490687402435286 0.19266922846018242 58 25 23 0.13 22 0 23 0 24 0 
1244 0.8132974167174079 -0.34071805674829925 0.9554365062772131 128 167 215 1.15 23 0 24 0 26 0 
1245 0.8352727367564801 -0.3304648219602755 0.9401495658456039 146 156 187 0.13 23 0 24 0 26 0 
1246 0.9711616489822272 0.12178846648865455 1.1129121743946024 24 20 27 0.34 23 0 24 0 26 0 
1247 0.9702347756259722 0.11806551411104543 1.0970225259986912 36 35 69 0.13 23 0 24 0 26 0 
1248 0.9915613592626642 0.12185360858187094 1.0863784465420623 101 155 179 0.45 23 0 24 0 26 0 
1249 0.769311027870992 -0.607407414037742 0.7774997912974296 28 58 112 0.41 23 0 24 0 25 0 26 0 
1250 0.14510278282632438 -0.782187302658456 0.7748108280705989 186 193 199 0.26 23 0 25 0 26 0 
1251 0.9866551735063274 0.1115907569271381 1.0643903802031107 55 50 84 0.65 23 0 24 0 26 0 
1252 0.18892534500738623 -0.7304128155155534 0.753025748950512 182 197 207 0.3 23 0 25 0 26 0 
1253 0.171603662561588 -0.7270930306536663 0.7536601941129618 195 204 208 0.12 23 0 25 0 26 0 
1254 0.9152661238156135 0.17160314793790282 1.082845456134247 148 207 238 0.77 23 0 24 0 26 0 
1255 0.7015477657991047 -0.6003722662686255 0.7207920137662557 72 69 65 0.6 22 0 23 0 24 0 25 0 26 0 
1256 0.20848950298671887 -0.6929199596969211 0.7468926013870792 192 203 211 0.92 23 0 25 0 26 0 
1257 0.9233540170673706 0.1773237474199037 1.0764831893572486 112 166 203 0.85 23 0 24 0 26 0 
1258 0.9354602878114098 0.1697536001171755 1.0611036538098069 163 223 252 0.26 23 0 24 0 26 0 
1259 0.918524686007218 0.17160242869541126 1.0636324431943383 89 117 153 0.55 23 0 24 0 26 0 
1260 0.6819570109985018 -0.6002611628551269 0.6966165955190574 68 65 60 0.71 22 0 23 0 24 0 25 0 26 0 28 0 29 0 
1261 0.9324780768128413 0.16755026870503048 1.0469116234139713 181 222 251 0.56 23 0 24 0 26 0 
1262 -0.361998267779686 -0.6668638848205573 0.803276745175025 192 204 214 2.18 23 0 24 0 25 0 
1263 0.9740568810561354 0.1564716686406637 1.027165568910057 78 121 174 0.6 23 0 24 0 26 0 
1264 0.6771182452745501 -0.5801862800243054 0.6795042504418568 126 122 119 0.67 23 0 24 0 25 0 28 0 
1265 0.9055943821301231 0.20130466224918064 1.052269154723287 93 117 154 0.49 23 0 24 0 26 0 
1266 1.0035528539750453 0.22333517422845955 1.0419799342104321 97 120 152 0.6 23 0 24 0 26 0 
1267 0.9774761756006949 0.15974997293052312 1.0117030059818148 88 136 192 0.04 23 0 24 0 26 0 
1268 0.9920063767165364 0.21567801030322092 1.0299250154126187 108 134 167 0.52 23 0 24 0 26 0 
1269 0.35039563627473214 -0.5246117623552811 0.6583791356637573 75 121 143 1.37 23 0 25 0 27 0 
1270 0.3076246122756371 -0.5504125411422391 0.6441695903016319 74 109 137 0.51 23 0 25 0 27 0 
1271 1.5887251254716197 -0.9161254169631281 0.25260217957335984 38 78 119 0.4 23 0 24 0 28 0 
1272 0.22606861031564895 -0.5036339861868488 0.6706479092887739 63 120 148 0.27 23 0 25 0 26 0 
1273 0.14593274271315682 -0.4881144201309129 0.6787064788704181 105 118 131 0.52 23 0 25 0 26 0 
1274 0.6838430572402212 -0.485229800031358 0.5990584401914044 141 145 153 0.85 23 0 25 0 26 0 
1275 -0.023895421647342707 -0.4843013496055617 0.6815986014686205 50 83 113 3.31 23 0 25 0 26 0 27 0 
1276 0.6776770518142501 -0.44100999258783297 0.5943401630941626 151 169 184 1.21 22 0 23 0 24 0 25 0 26 0 27 0 28 0 32 0 
1277 0.39032827998236064 -0.4686740337120165 0.6135803269783394 165 172 179 0.43 23 0 25 0 26 0 27 0 
1278 0.36166187428108754 -0.48094625938656044 0.6065343646021107 175 181 190 1.46 22 0 23 0 25 0 26 0 27 0 
1279 0.33462885469108805 -0.517335920289571 0.5842624415614851 195 198 203 1.12 23 0 25 0 26 0 27 0 
1280 0.5140398236025538 -0.4479509134595901 0.5993385429968582 200 213 219 1.01 23 0 24 0 25 0 26 0 27 0 29 0 
1281 0.4578738745649442 -0.4765007215879244 0.5815060474301906 191 201 208 2.34 23 0 24 0 25 0 26 0 27 0 
1282 0.02762100979829374 -0.4917757013313732 0.6274473853533694 188 193 198 1.07 23 0 25 0 26 0 
1283 0.6929637665460202 -0.4044397775524364 0.5894157380929436 99 107 107 1.53 22 0 23 0 24 0 25 0 26 0 32 0 
1284 -0.1180514555711939 -0.5094406625182781 0.6174045539429726 186 192 197 0.14 23 0 25 0 26 0 
1285 0.023713355982260986 -0.43710880679535896 0.6341045850716774 191 197 202 0.56 23 0 25 0 26 0 
1286 -0.08606685787735596 -0.47385599639154047 0.6129531452745732 177 187 196 0.58 23 0 25 0 26 0 
1287 0.7039144603233729 -0.3684978181086033 0.5724073003798457 146 155 159 0.43 23 0 24 0 26 0 
1288 -0.39460571490667806 -0.5181201126266486 0.6121094261139021 179 189 196 0.23 23 0 25 0 26 0 
1289 -0.41014916276148594 -0.5055740756614739 0.6197297615255274 187 200 206 0.42 23 0 25 0 26 0 
1290 -0.30529528902948516 -0.4456468619304782 0.6294402523474111 171 183 192 3.88 23 0 25 0 26 0 
1291 -0.15752527876897715 -0.4603242574483223 0.5934551323285034 182 189 198 0.63 23 0 25 0 26 0 
1292 0.6511937420625986 -0.35947205026537155 0.5520018526266736 86 78 77 1.04 23 0 24 0 25 0 26 0 27 0 
1293 -0.5585998785061812 -0.4767650424969953 0.6377537220600255 186 202 213 0.87 23 0 24 0 25 0 
1294 -0.4574074572140219 -0.4520946504966594 0.6266325970539471 177 193 200 0.82 23 0 25 0 26 0 
1295 1.0550016796089656 -0.8330009030958236 0.16875241241975092 98 79 65 0.44 23 0 24 0 25 0 27 0 28 0 
1296 0.5674261098502008 -0.3616337740253241 0.545403098139675 75 68 69 0.66 23 0 25 0 26 0 27 0 32 0 
1297 0.12959204330413976 -0.4063461621607511 0.5699598498463293 130 137 142 0.92 23 0 24 0 26 0 27 0 
1298 0.5334755036429877 -0.34907688607505644 0.5566716290384789 67 64 67 0.73 23 0 25 0 32 0 
1299 0.6124415909315637 -0.35214595758993317 0.5364013543094458 137 140 141 1.4 23 0 24 0 25 0 27 0 
1300 -0.0005001392611886368 -0.38588749838923386 0.5824036371233318 150 160 165 0.32 23 0 24 0 25 0 26 0 32 0 
1301 -0.02992858312925284 -0.3868940837060488 0.5818873886962413 96 87 86 0.54 22 0 23 0 24 0 25 0 26 0 32 0 
1302 -0.3622874679737674 -0.4719689346287921 0.5609642359785508 81 76 96 0.65 23 0 25 0 26 0 
1303 0.658257757388766 -0.31539084601946843 0.5316293488933607 137 122 116 0.49 23 0 26 0 27 0 
1304 0.7202428580040372 -0.41733268936394846 0.43906440191663354 118 81 68 0.49 23 0 24 0 25 0 26 0 
1305 0.024697898472908653 -0.3573403599729179 0.5549464713867961 91 87 84 2.19 23 0 24 0 25 0 26 0 28 0 32 0 
1306 -0.3701538267944633 -0.4050075429402435 0.5718038528156547 92 90 84 0.47 23 0 24 0 25 0 26 0 
1307 -0.009558973011685179 -0.34412103176771097 0.5599735700355858 67 61 63 0.58 23 0 25 0 26 0 
1308 -0.5362554985535012 -0.39781827900861194 0.5743011640613803 106 104 110 0.11 23 0 24 0 25 0 
1309 0.13260265393376558 -0.3810077655085038 0.4923205520593953 106 92 82 0.51 23 0 24 0 25 0 26 0 27 0 
1310 0.019905183283317418 -0.37416422450123965 0.5028099799486431 100 96 93 0.67 23 0 24 0 25 0 26 0 27 0 
1311 1.5753070866515062 -0.6856232396580113 0.0938950474582666 69 70 68 0.14 23 0 26 0 28 0 
1312 -0.3640495092082475 -0.3940652351784584 0.5316800326283965 86 82 76 0.69 22 0 23 0 24 0 25 0 
1313 -0.03353183566103202 -0.44040478749255596 0.4478037629638595 59 50 45 1.4 23 0 24 0 25 0 26 0 27 0 32 0 
1314 0.42553366068200293 -0.7863993792480641 0.12936445644833683 31 18 13 0.72 23 0 24 0 25 0 26 0 
1315 0.169161581030555 -0.4098388238331902 0.4396480376675841 38 24 17 0.69 23 0 24 0 25 0 26 0 27 0 
1316 -0.40781213389403786 -0.3626706896262554 0.5485264642186755 116 141 150 0.91 23 0 24 0 25 0 26 0 
1317 0.9168371432833755 -0.8050706477164242 0.0392191532209184 79 94 97 0.61 23 0 24 0 25 0 
1318 -0.5542417290997541 -0.37635585899106083 0.5330204967802771 71 60 57 0.33 23 0 24 0 25 0 
1319 -0.41050415763635634 -0.3815232120736126 0.489406520413426 84 78 71 1.02 23 0 24 0 25 0 26 0 
1320 -0.9452709165152293 -0.8421866396658593 0.16541126930124406 43 35 29 0.44 23 0 24 0 25 0 28 0 29 0 
1321 1.2251088433808486 -0.6307830134055608 0.06425510645485699 141 132 123 0.46 23 0 24 0 25 0 
1322 -0.3006424880744582 -0.7949570688496512 0.1053212392157804 10 6 6 0.32 23 0 24 0 25 0 26 0 
1323 -0.22558497584817153 -0.799565813420442 0.08707141615339065 49 40 33 0.32 23 0 24 0 25 0 26 0 27 0 
1324 1.2800630902254604 -0.6108746524985482 0.04593097005718294 154 141 122 1.04 23 0 25 0 26 0 
1325 1.149403255645669 -0.6084411742417988 0.056809510063164814 134 111 102 0.44 22 0 23 0 25 0 26 0 
1326 1.1907132452137323 -0.6132863847272916 0.044915826194616426 174 159 138 0.18 23 0 25 0 28 0 
1327 -1.7533033491712917 -0.8769727714896394 0.17956929675643674 68 80 90 0.4 23 0 24 0 27 0 
1328 -0.9464539232488076 -0.7920565578781786 0.13143473103738657 27 20 15 0.36 23 0 24 0 28 0 
1329 -1.6300269386409967 -0.8453920875785266 0.1707801022814276 103 94 93 3.65 23 0 24 0 26 0 34 0 
1330 -0.9407126191637539 -0.3926687427651207 0.45074341825286457 86 66 61 0.59 23 0 24 0 28 0 
1331 -1.7225243138546764 -0.8217547599768265 0.17425049826756667 120 107 102 1.3 23 0 24 0 25 0 27 0 34 0 
1332 -2.1167145634076032 -0.8947586136131431 0.16380682274554792 66 68 72 0.44 23 0 25 0 29 0 
1333 1.2128873455191211 -0.5583416343613372 0.04923477820418409 163 144 130 0.34 23 0 25 0 26 0 
1334 -0.2603714100604353 -0.6411738136233953 0.12669230338933424 51 40 34 3.07 23 0 24 0 25 0 26 0 32 0 
1335 -0.30332173214914493 -0.7219812076328167 0.06372599235567311 21 15 12 0.39 23 0 24 0 25 0 26 0 
1336 1.4360778430272143 -0.5881963527810111 -0.025950879549418326 75 63 60 0.34 23 0 24 0 25 0 26 0 
1337 1.362643244888493 -0.5651152622290687 -0.004038748577627982 114 79 74 0.64 23 0 24 0 25 0 26 0 
1338 0.4178207530626279 -0.6525543010639887 0.021852311609047548 25 26 24 1.74 23 0 24 0 25 0 26 0 27 0 28 0 29 0 
1339 1.6649467778959222 -0.5207086039520361 0.0019359346266065725 186 170 153 0.44 23 0 24 0 28 0 
1340 1.0685012512744565 -0.5663023932407407 0.023597066085928042 164 151 137 0.13 23 0 24 0 27 0 
1341 -1.7717581985110813 -0.7591098957051186 0.15342321785834667 84 83 68 2.19 23 0 24 0 25 0 27 0 28 0 
1342 1.0057522171930822 -0.6060149422373187 -0.02870751061920873 159 168 178 0.44 23 0 24 0 26 0 
1343 -1.3872878161063735 -0.9277000661206449 -0.05239370363390383 99 120 142 1.58 23 0 24 0 28 0 
1344 1.2992485217839302 -0.5140312307790691 0.004154928644954814 135 120 110 0.58 23 0 24 0 25 0 26 0 
1345 0.9667383058649386 -0.5660557634416525 -0.02462734361809782 90 112 120 0.23 23 0 24 0 26 0 
1346 0.45968832255842884 -0.5753070558695244 0.004709075154818776 23 17 11 0.63 23 0 24 0 25 0 26 0 27 0 28 0 
1347 0.41521752988714256 -0.6031060685698082 -0.021155399135511455 73 65 57 0.62 23 0 24 0 25 0 26 0 27 0 29 0 
1348 0.2901552168355145 -0.6045294156242558 -0.0226314270809419 70 61 52 0.67 23 0 24 0 25 0 26 0 27 0 
1349 -1.0699375205571262 -0.6305314774892263 0.1041083584012189 29 23 25 0.81 23 0 24 0 25 0 26 0 28 0 29 0 
1350 -1.7272522022111179 -0.7025959276249292 0.07438918037640974 160 164 170 0.78 23 0 24 0 25 0 27 0 28 0 29 0 32 0 
1351 -0.22554135585961776 -0.5955074775714362 -0.0080714500201855 68 59 51 0.28 23 0 24 0 25 0 26 0 27 0 28 0 
1352 -1.0624943879733715 -0.5829175148664261 0.09605044856760225 54 49 49 1.51 22 0 23 0 24 0 25 0 26 0 28 0 29 0 34 0 35 0 
1353 1.0148140006750561 -0.46391345454276944 -0.01975378358534241 57 60 60 0.63 23 0 25 0 26 0 
1354 0.29178698066513853 -0.5720989041330751 -0.052539376554358586 16 16 13 0.58 23 0 25 0 26 0 
1355 -0.9640495681659694 -0.23739572338741877 0.3752122388287332 91 97 99 1.72 23 0 24 0 25 0 26 0 28 0 
1356 0.19314480646625998 -0.5063135010198407 -0.004411145472178912 47 23 15 0.57 23 0 25 0 26 0 32 0 
1357 0.41444609169294455 -0.5339216753266782 -0.057352606906010184 62 58 51 0.68 23 0 24 0 25 0 26 0 27 0 28 0 29 0 
1358 -0.1990500573051684 -0.5289419485921218 0.009570854612292568 31 31 27 1.62 23 0 24 0 28 0 
1359 -0.9509542270109792 -0.5692571060766707 0.050911383115571085 37 28 22 0.41 23 0 24 0 25 0 26 0 27 0 
1360 0.2898247630829549 -0.5389417658921225 -0.06251161339184541 66 59 52 0.5 23 0 24 0 25 0 26 0 27 0 
1361 -1.7976761726241943 -0.6630027858684702 0.024842506352963367 145 171 187 0.84 22 0 23 0 24 0 25 0 27 0 28 0 29 0 
1362 1.1787348049143789 -0.44106156226752563 -0.0722724975913559 123 106 99 0.73 23 0 25 0 28 0 
1363 0.18186432479840353 -0.4774372162512677 -0.013622618438706824 50 38 32 0.24 23 0 24 0 25 0 
1364 0.13761162415534178 -0.10460752929123468 0.3416379893119196 47 39 33 0.55 23 0 24 0 26 0 
1365 -1.5586994313800426 -0.5851713344279339 0.0460486509135517 140 141 144 0.74 23 0 25 0 29 0 32 0 
1366 -1.6236692351735635 -0.5806855460040945 0.04230477672584032 136 134 133 1.46 23 0 24 0 25 0 27 0 28 0 29 0 32 0 34 0 
1367 1.3425419587271923 -0.3926855296183617 -0.06511939760158647 109 102 99 0.3 23 0 26 0 28 0 32 0 
1368 -0.33300694142177156 -0.5346292950823732 -0.043733776238846556 43 31 23 0.62 23 0 24 0 25 0 26 0 
1369 -1.0662954544621663 -0.5121832833559965 0.05291653330155566 47 43 46 1.18 22 0 23 0 24 0 25 0 26 0 27 0 28 0 29 0 35 0 
1370 1.2750470219162966 -0.4027762122990353 -0.07662702443268532 136 117 105 0.39 23 0 25 0 26 0 
1371 0.2614060777498768 -0.49006503338405855 -0.07063703002156152 61 59 52 0.96 22 0 23 0 24 0 25 0 26 0 27 0 32 0 
1372 -1.6667996058285828 -0.5717534026870498 0.03282685441908295 151 145 141 1.17 23 0 24 0 25 0 27 0 32 0 
1373 0.4419476717763777 -0.4681859620857568 -0.08537233639985853 31 28 24 0.74 23 0 24 0 25 0 26 0 27 0 28 0 29 0 
1374 1.0026555656395049 -0.41334105473905863 -0.08563207373863613 121 113 102 2.04 23 0 24 0 26 0 32 0 
1375 0.9836546547236311 -0.41114902669136594 -0.08445343425453122 118 111 98 1.17 23 0 24 0 26 0 
1376 -1.8142533804722203 -0.6030605836972167 -0.015711486730999646 171 195 217 2.5 23 0 25 0 27 0 29 0 
1377 -0.22760186743064176 -0.4954499507965257 -0.07035054938650775 59 54 49 0.27 23 0 24 0 27 0 28 0 
1378 0.4619196690125722 -0.4198626165057941 -0.06639822072519219 19 13 11 0.33 23 0 24 0 25 0 26 0 27 0 28 0 29 0 
1379 -1.6142939397093519 -0.5123283376274756 0.012144592714150249 94 92 99 2.0 23 0 24 0 25 0 27 0 28 0 29 0 32 0 34 0 
1380 -0.2843207641480374 -0.4699131072159752 -0.07852615006130492 30 30 27 0.46 23 0 24 0 25 0 26 0 27 0 28 0 29 0 
1381 1.0137974704056636 -0.3397132341409368 -0.07969185795918188 175 163 148 1.19 22 0 23 0 24 0 25 0 26 0 28 0 
1382 0.47949792519227474 -0.3806383322375544 -0.06895689356969814 74 60 48 0.72 23 0 24 0 25 0 26 0 27 0 28 0 29 0 
1383 0.8850958940318872 -0.313136313833278 -0.04159944482548994 141 134 124 2.66 22 0 23 0 24 0 26 0 
1384 0.41327531768613013 -0.3902567713328432 -0.08033440609519249 35 22 16 0.59 23 0 25 0 27 0 
1385 -0.9511247485270011 -0.44036658324689737 -0.008056527484727183 74 66 59 0.51 23 0 24 0 25 0 26 0 27 0 29 0 
1386 1.1589733609619837 -0.33917929520543555 -0.09431645083911 130 122 111 0.88 23 0 24 0 25 0 28 0 
1387 -1.695304128711627 -0.515851576717903 -0.03720259005666959 135 126 120 0.71 23 0 24 0 25 0 
1388 -1.061480371332565 -0.4033851061833614 0.00698350675743209 62 54 54 0.96 23 0 24 0 26 0 27 0 28 0 34 0 
1389 1.0464564703717742 -0.3258360861571676 -0.10047075139043937 160 147 134 0.54 23 0 24 0 25 0 26 0 27 0 28 0 
1390 0.40599639985943736 -0.3488164003802809 -0.08093571853142245 110 90 70 0.67 23 0 25 0 27 0 
1391 -1.639779348179992 -0.47735545129722706 -0.046839665469763814 119 104 104 0.47 23 0 24 0 27 0 28 0 
1392 -0.22807287422265596 -0.3835248155722901 -0.07243184449377182 31 24 19 0.97 23 0 24 0 25 0 26 0 27 0 28 0 29 0 32 0 
1393 -1.2192068902020194 -0.4287054927360981 -0.040520115217910546 136 151 166 5.1 22 0 23 0 24 0 25 0 34 0 35 0 
1394 -0.31393010117647646 -0.37942000133489695 -0.07769125230092633 53 42 37 0.63 23 0 24 0 25 0 26 0 27 0 28 0 29 0 
1395 -0.9548369934376608 -0.3861016572346144 -0.0452458977707092 57 48 41 0.07 23 0 25 0 27 0 
1396 1.0574361225182045 -0.2845870386717845 -0.10806683103702541 100 95 93 0.71 23 0 24 0 26 0 
1397 -1.0600947215147372 -0.3604892265489761 -0.010764535960632204 60 58 62 0.97 23 0 24 0 27 0 34 0 
1398 -1.6380765125020096 -0.4394575040697615 -0.049878255112257186 80 70 74 0.73 23 0 24 0 25 0 27 0 28 0 29 0 32 0 
1399 0.009620002688587648 0.01801978108322297 0.2943613536370394 115 117 123 0.62 23 0 26 0 27 0 
1400 -0.2418897423270251 -0.346717862906865 -0.09065968605117203 54 41 35 0.45 23 0 24 0 25 0 26 0 27 0 28 0 
1401 -0.2101503866376073 -0.3294209987327754 -0.09622524739277505 52 40 32 0.58 23 0 24 0 25 0 26 0 27 0 28 0 29 0 
1402 -0.5615195227021932 -0.3296298570235701 -0.08410581767181846 60 50 45 0.68 23 0 24 0 34 0 
1403 -0.5296903688170651 0.024800081958560927 0.31024268954482126 123 120 125 0.66 23 0 25 0 26 0 
1404 -0.9484066398792792 -0.3363554650355784 -0.05985716999334578 63 54 46 0.82 23 0 26 0 29 0 
1405 -0.467352236665337 -0.3169793679000427 -0.08785648371573784 43 32 31 0.48 23 0 24 0 34 0 
1406 1.6401555623597035 -0.21252986476439475 -0.15266973501299985 115 100 95 0.57 22 0 23 0 24 0 26 0 32 0 
1407 -0.40684496686075833 -0.3133812909672097 -0.10040924113252059 52 45 43 0.52 23 0 24 0 25 0 26 0 
1408 -0.9998826320962122 -0.32058607809692674 -0.07202502558433 55 44 43 0.21 23 0 25 0 27 0 
1409 -0.9539020659183685 -0.31897535005334665 -0.07696592767988908 32 29 28 0.33 23 0 24 0 25 0 28 0 
1410 -0.20691380668383738 -0.28833502261243915 -0.11477210152493023 70 56 43 0.63 23 0 24 0 25 0 26 0 27 0 28 0 29 0 32 0 
1411 -0.24467191587959422 -0.28217906980392377 -0.11266763316574735 53 45 39 0.69 23 0 24 0 25 0 26 0 27 0 28 0 29 0 
1412 0.5599866454840912 0.10583272936436822 0.26107957662909353 146 151 157 2.24 23 0 25 0 26 0 27 0 28 0 29 0 32 0 
1413 -1.0707307365545622 0.03761580493961211 0.3071287735743805 172 173 182 0.81 23 0 25 0 26 0 28 0 29 0 
1414 -0.9942998954266187 -0.29247923487950006 -0.084531059446732 70 58 53 0.57 23 0 26 0 27 0 28 0 
1415 -0.3272360339817826 -0.2776837276060393 -0.124375353002811 50 36 27 0.21 23 0 25 0 29 0 
1416 -0.5264641195380925 -0.2852171276783372 -0.12042781551711268 90 82 78 0.28 23 0 25 0 32 0 
1417 -0.22864367713169556 -0.2744760898655899 -0.1292701305171915 56 38 31 0.44 23 0 24 0 25 0 27 0 28 0 
1418 -2.002779218195999 -0.3682597172493177 -0.11559519900038595 148 137 142 0.54 23 0 25 0 27 0 
1419 0.48774935763435145 -0.23520552575590897 -0.14482812371277287 103 81 66 0.53 23 0 24 0 25 0 26 0 27 0 28 0 29 0 
1420 0.4481327883373999 -0.23395677718386737 -0.14369148446302737 116 98 84 0.62 23 0 24 0 25 0 26 0 27 0 28 0 29 0 
1421 0.980124324220393 -0.21136996212199502 -0.16109607866407583 169 148 130 0.65 22 0 23 0 24 0 25 0 26 0 27 0 
1422 0.3705885066725504 -0.2364339905987477 -0.14498467986530228 95 72 62 1.91 22 0 23 0 24 0 25 0 26 0 27 0 29 0 
1423 -0.9386616877730554 -0.2582464834784577 -0.08119836492486432 56 40 32 0.51 23 0 26 0 28 0 29 0 
1424 1.55725594710533 -0.18520476971239383 -0.18773208788528628 20 15 12 0.65 23 0 24 0 26 0 28 0 
1425 1.0678991178229127 -0.1969706049467098 -0.170008395105692 83 82 82 0.35 23 0 24 0 25 0 26 0 28 0 
1426 1.420095605141936 -0.18693586850176708 -0.22127439559687379 52 41 37 0.25 23 0 24 0 26 0 28 0 
1427 -0.5233322829304052 -0.2367796195427177 -0.14661543656691167 87 77 68 0.38 23 0 25 0 32 0 
1428 -1.0925668199970635 -0.24467391935537414 -0.12434120805448323 37 36 42 0.23 23 0 25 0 26 0 
1429 1.0454251801075323 -0.16336439168013928 -0.17746526682183217 70 70 71 0.59 22 0 23 0 24 0 25 0 26 0 28 0 
1430 -1.6256450023562434 -0.2643699054627055 -0.12156097717129988 114 107 105 1.38 23 0 24 0 25 0 27 0 28 0 29 0 32 0 34 0 
1431 -2.0049862101952804 -0.30368648219616123 -0.15349683594236418 97 103 107 0.58 23 0 25 0 27 0 
1432 0.42400434098685336 -0.21868431057086402 -0.2093692796218004 55 37 33 0.82 23 0 24 0 27 0 
1433 0.9659241506425358 -0.1883084585790164 -0.22705977419382684 114 128 127 0.49 23 0 24 0 25 0 
1434 0.3839892218877725 -0.22625385327057113 -0.22800399947230943 16 10 7 0.17 23 0 24 0 25 0 
1435 0.9054792727186247 -0.2059567128891301 -0.24497870606197114 84 83 82 1.28 23 0 25 0 26 0 
1436 0.3196594106377567 -0.21282328044203774 -0.21469109893575822 17 10 9 0.98 22 0 23 0 24 0 25 0 
1437 0.9391244362433107 -0.1933596317628487 -0.23466801474212817 54 66 66 1.24 23 0 25 0 26 0 
1438 1.4886670794694712 -0.16180451424864079 -0.24236462009617044 121 112 113 0.37 23 0 26 0 28 0 
1439 -1.9929928481221533 -0.25004077804043984 -0.13765534289340198 103 105 112 0.93 23 0 25 0 27 0 29 0 
1440 0.3830536717390842 -0.19912912024096807 -0.22206281098653047 53 44 39 0.81 22 0 23 0 24 0 25 0 26 0 29 0 
1441 1.119468190582266 -0.13703008972723932 -0.20186187851193615 127 104 88 0.79 23 0 24 0 26 0 
1442 0.3186874045325373 -0.19513260357773415 -0.21710726015108794 56 47 41 0.51 23 0 24 0 25 0 26 0 27 0 28 0 
1443 -0.25961633951439733 -0.18890658182658931 -0.1738702232725161 46 35 32 0.83 23 0 24 0 25 0 26 0 27 0 28 0 29 0 
1444 -0.3296453814027833 -0.18233499553282392 -0.16875280264324366 48 31 28 1.04 23 0 24 0 25 0 27 0 28 0 
1445 -2.0773983418426236 -0.24574137103420557 -0.15982495715608325 95 95 100 0.68 23 0 25 0 29 0 
1446 -0.9728791662359555 -0.1809403223304583 -0.14534590489342347 68 57 54 0.77 23 0 24 0 25 0 26 0 27 0 28 0 
1447 -0.2844765816367042 -0.17318557331073628 -0.1952851943055507 20 12 11 0.45 23 0 24 0 25 0 26 0 27 0 28 0 29 0 
1448 -1.0919381688718077 -0.18141706065721824 -0.16169152675305876 42 38 42 1.14 23 0 24 0 25 0 26 0 27 0 32 0 34 0 35 0 
1449 0.46076197673599284 -0.14482344679448023 -0.21033872993359382 21 11 11 0.42 23 0 25 0 26 0 
1450 1.1506753892736026 -0.1407220000808339 -0.2524400124288707 127 109 96 1.45 23 0 24 0 25 0 26 0 
1451 -0.9733593324839217 0.1365702526832855 0.22735902244906125 131 127 124 0.43 22 0 23 0 25 0 26 0 
1452 -1.7185802238986205 -0.1941758699733055 -0.17041637524761988 54 44 47 0.59 23 0 25 0 27 0 29 0 
1453 -0.25452534457119513 -0.15828125189171305 -0.20772390265335217 29 21 21 0.75 23 0 24 0 25 0 26 0 27 0 28 0 29 0 
1454 0.07446422611017794 0.21259844232928993 0.2517206273930893 152 155 159 0.39 23 0 25 0 26 0 
1455 -0.3399983855615627 -0.12115109655963137 -0.15400918177661238 80 72 69 1.79 23 0 24 0 26 0 34 0 
1456 -1.2376061104028504 -0.19788924904498856 -0.2105080184299375 53 45 43 0.46 23 0 24 0 34 0 
1457 0.15845364977258758 -0.12116297374126714 -0.19790826162514563 104 91 79 0.53 23 0 24 0 25 0 
1458 -0.310446411928439 -0.1484429103755153 -0.2071612517790984 28 17 15 0.23 23 0 24 0 26 0 27 0 
1459 -0.9459484397450411 -0.13552920496773427 -0.15732378279120984 78 63 56 0.49 22 0 23 0 24 0 25 0 26 0 27 0 28 0 29 0 
1460 0.0077047573595084295 0.189120863016922 0.20874933294969 120 118 120 0.5 23 0 24 0 25 0 
1461 -0.3547501207257139 -0.13847708618197643 -0.20446658470505918 83 73 65 0.48 23 0 24 0 28 0 
1462 -1.8018230572252953 -0.20698512376136066 -0.22685681870449914 60 56 56 0.46 23 0 25 0 27 0 29 0 
1463 -1.8670342622900786 -0.21151799839654462 -0.2289767097746943 54 48 47 0.33 23 0 25 0 27 0 29 0 
1464 1.419661368769894 -0.0960674689214733 -0.27157763796745504 90 109 114 0.92 23 0 26 0 28 0 
1465 1.0159982832846928 -0.08067654025897522 -0.2243677314190391 73 79 78 0.32 23 0 25 0 26 0 
1466 -0.9445433266476898 -0.11807550005326183 -0.17014794828937996 80 63 48 0.59 23 0 25 0 27 0 28 0 29 0 
1467 0.46544269550353556 -0.13465771635999751 -0.2646911797023046 51 48 47 2.56 23 0 25 0 26 0 27 0 35 0 
1468 -0.2585755090679521 -0.1393494690073491 -0.2334745167937854 31 21 20 0.51 23 0 24 0 25 0 26 0 27 0 
1469 -0.9195602994650718 -0.13681639434671705 -0.20275166868497996 60 39 33 0.59 23 0 24 0 25 0 26 0 28 0 29 0 
1470 -1.0711244032910343 0.18538122967814663 0.23291654699468134 165 172 180 0.27 23 0 25 0 29 0 
1471 -0.3504398052854997 -0.11439836765011921 -0.19872625071455885 66 56 51 1.13 23 0 24 0 26 0 28 0 34 0 
1472 -1.1542663803516668 -0.11984620736980761 -0.18599838902702914 85 74 74 1.26 23 0 26 0 35 0 
1473 0.9362359597878709 -0.10372397680501 -0.2766101228316601 166 174 176 0.54 23 0 24 0 25 0 26 0 
1474 -0.28624993797862064 -0.12030557914232137 -0.2394920097810177 34 23 22 0.67 23 0 24 0 25 0 26 0 27 0 28 0 29 0 
1475 -0.3449599266545056 -0.08893209371048588 -0.19430673226341677 89 82 75 1.62 23 0 24 0 25 0 26 0 27 0 28 0 29 0 35 0 
1476 -0.9695223943584376 -0.09842785413255697 -0.1848770611673578 99 96 90 0.96 23 0 24 0 25 0 26 0 28 0 29 0 
1477 1.570612465042408 -0.0414663648063984 -0.25060727814971007 69 67 65 0.48 23 0 24 0 26 0 28 0 
1478 0.13801162537112766 0.20929957870045057 0.18014838348706352 130 117 103 0.64 23 0 24 0 26 0 27 0 
1479 0.9805971154531998 -0.09952861222761272 -0.2974980961550242 78 92 91 0.71 23 0 25 0 26 0 
1480 1.156110904124251 -0.032756742126061944 -0.2388610114151659 107 78 73 0.65 23 0 24 0 25 0 26 0 28 0 
1481 -0.2578982597739965 -0.07904489460776909 -0.24748848126043754 29 20 19 0.39 23 0 24 0 25 0 26 0 27 0 28 0 29 0 
1482 -0.35338322305992587 -0.07552561762302125 -0.2354806166854343 65 54 48 0.54 23 0 26 0 28 0 29 0 
1483 -0.947503058864632 -0.06644006774743372 -0.20235706023535616 57 45 43 0.88 22 0 23 0 24 0 25 0 26 0 27 0 28 0 
1484 -0.893685109078856 -0.0769943947477094 -0.2321331465391473 44 42 43 0.83 23 0 24 0 25 0 26 0 27 0 28 0 29 0 32 0 
1485 -1.0714884469537822 -0.049244077050871804 -0.19459102721074417 30 24 23 0.56 23 0 25 0 27 0 28 0 
1486 -1.1772536850078215 -0.08133024657590163 -0.25285893784629365 70 50 53 0.45 23 0 24 0 25 0 26 0 32 0 
1487 0.982122775428814 -0.05921242620456976 -0.3258038821992112 79 91 90 0.38 23 0 26 0 27 0 
1488 1.1339187189573154 -0.03463968764382133 -0.3073601066822881 142 128 120 1.62 23 0 24 0 25 0 
1489 -0.9500214030786 -0.03713668160503861 -0.2252316210368427 83 64 49 0.79 23 0 24 0 25 0 26 0 27 0 29 0 
1490 0.7988068324276858 -0.030471913087123492 -0.2896712551602566 133 142 147 0.35 23 0 24 0 34 0 
1491 -0.04226370259940382 -0.0022501883097905406 -0.2138628824383525 105 97 91 1.57 25 0 26 0 27 0 28 0 29 0 32 0 35 0 
1492 0.8998744819825313 -0.046395715619793054 -0.3313915733927123 101 121 123 0.77 23 0 24 0 25 0 34 0 
1493 0.8756031168996579 -0.049374006894633726 -0.33427077664464966 194 199 197 0.53 23 0 24 0 25 0 34 0 
1494 -0.5119801515118814 0.26701267949731206 0.1666851903666834 148 157 168 1.56 23 0 25 0 27 0 29 0 
1495 -0.9898695942814812 -0.01571839304445985 -0.223949564727694 115 107 101 0.7 23 0 24 0 25 0 26 0 27 0 28 0 29 0 
1496 -1.1875559614800952 -0.053969952086377976 -0.2749362240375781 76 74 82 1.7 23 0 24 0 25 0 26 0 32 0 34 0 35 0 
1497 -1.7425133347187431 -0.07028476987734569 -0.2778221688714805 122 118 118 0.7 23 0 25 0 27 0 29 0 
1498 -0.9396411622080919 -0.004169179559991104 -0.213541305103512 66 45 35 0.37 23 0 24 0 25 0 26 0 28 0 
1499 0.4253592620306721 -0.061779236179758334 -0.3476068877955518 60 71 73 1.18 23 0 26 0 27 0 28 0 
1500 -0.50056794922256 -0.0154473496699358 -0.2707073332798523 84 71 63 0.27 23 0 24 0 25 0 
1501 -0.9408836789935646 0.010297221982611321 -0.2377331778710774 87 69 53 0.83 23 0 25 0 26 0 27 0 28 0 29 0 
1502 -0.9989298914947208 0.009606557432319862 -0.25163890712941794 85 71 68 1.87 23 0 24 0 25 0 26 0 27 0 28 0 29 0 
1503 -2.127144525833433 -0.02629057572661564 -0.27493182974471564 98 64 63 0.68 23 0 25 0 29 0 
1504 0.17352754071618592 0.02058061737831801 -0.268558163336694 120 107 94 0.58 23 0 24 0 25 0 32 0 34 0 
1505 -0.4412296174491063 0.030252219116742418 -0.2479872827833146 86 72 61 0.93 23 0 26 0 35 0 
1506 0.2776699160377063 -0.004706316425551804 -0.3230909561945765 152 158 161 0.31 23 0 24 0 26 0 27 0 
1507 1.1295443877297415 0.06634214012763323 -0.27085957645392655 104 71 61 1.46 23 0 25 0 26 0 28 0 
1508 -0.9798639973568076 0.04151035770274891 -0.24698998828439733 73 63 62 1.35 23 0 24 0 25 0 26 0 27 0 29 0 
1509 1.4193045283478098 0.027214405894197408 -0.352479062051097 151 174 183 0.74 22 0 23 0 24 0 26 0 28 0 
1510 1.2385959758837515 0.06301486252940133 -0.2984570794065061 112 86 79 0.42 23 0 25 0 26 0 
1511 1.2019384566372575 0.06029853505398061 -0.3049263456372706 117 84 77 0.33 23 0 24 0 25 0 
1512 0.8687871706389865 0.026438748161278475 -0.35361014914509536 139 155 157 0.35 23 0 24 0 34 0 
1513 0.31696192593161754 0.02510673283008652 -0.34682591120295403 129 139 143 0.99 23 0 24 0 26 0 27 0 28 0 29 0 34 0 
1514 -1.3205362385608732 -0.020085499211612012 -0.3864211146553407 109 124 130 0.94 23 0 25 0 32 0 
1515 0.4603495314104149 0.06493972451655516 -0.3042570752288959 37 33 32 0.62 23 0 24 0 25 0 26 0 27 0 28 0 29 0 
1516 -1.1768402210496354 0.04358664063758011 -0.3031287233831166 87 97 107 0.71 23 0 25 0 32 0 
1517 -1.9591614026473587 0.029889680650360073 -0.3177331684603194 90 78 71 0.46 23 0 25 0 27 0 29 0 
1518 -1.2510770398945308 0.013000480496551947 -0.3563800930668143 85 111 126 0.62 23 0 24 0 25 0 32 0 
1519 -0.4919809270516539 0.02506732888164173 -0.35262200680721123 99 84 72 0.79 23 0 24 0 26 0 
1520 -0.5710790533280183 0.06765646234552908 -0.28955603352080284 121 111 101 0.64 23 0 24 0 34 0 
1521 -1.6762545300049834 0.0416618096628637 -0.32084808454285996 133 122 119 0.36 23 0 25 0 27 0 
1522 -0.8758007280790722 0.07203512461381822 -0.29710840368108393 86 79 74 0.78 23 0 24 0 25 0 26 0 28 0 29 0 32 0 
1523 -1.2386285006855058 0.013309621903539959 -0.39082705799300255 114 115 121 1.08 23 0 24 0 34 0 
1524 -0.31261908479061656 0.06941030927855166 -0.3187415214700037 65 53 48 0.74 23 0 24 0 26 0 28 0 
1525 0.6795263035162804 0.38194017219559745 0.14282089228941797 179 169 157 1.4 23 0 24 0 34 0 
1526 -0.21030295875128924 0.07488898652780934 -0.3263660821935951 46 35 34 0.54 23 0 24 0 25 0 26 0 27 0 28 0 29 0 
1527 -0.26127229118615364 0.0706740310574584 -0.3326081291016154 49 34 34 0.42 23 0 24 0 25 0 26 0 27 0 28 0 29 0 
1528 -0.9740586329162755 0.10139699701986188 -0.28773305296723617 75 59 57 0.66 23 0 24 0 25 0 26 0 27 0 28 0 29 0 
1529 -0.35254752010607643 0.10292551114713905 -0.29361781752339733 101 94 90 1.87 23 0 24 0 25 0 26 0 27 0 28 0 29 0 34 0 35 0 
1530 -0.312844714888777 0.08558594902910194 -0.33242547100511244 61 38 33 0.96 23 0 24 0 25 0 26 0 27 0 28 0 29 0 
1531 0.9322374177200254 0.08593122532268366 -0.38348676356889255 167 176 181 0.77 22 0 23 0 24 0 25 0 26 0 
1532 -1.1821040210312312 0.08946337222573983 -0.34218140951176834 125 128 137 0.32 23 0 26 0 32 0 
1533 0.4203889370713325 0.0646912832808548 -0.4051036162328068 61 72 73 1.78 23 0 24 0 25 0 26 0 27 0 28 0 
1534 -0.3764894084156106 0.12415403851613754 -0.2954043619058144 106 95 87 2.74 23 0 24 0 26 0 27 0 28 0 35 0 
1535 1.5635334129570762 0.13763228532105642 -0.33467486255268475 43 60 61 0.78 23 0 24 0 26 0 28 0 32 0 34 0 
1536 0.378855069788268 0.10480765842389145 -0.344575007356299 127 132 136 2.71 23 0 24 0 25 0 26 0 27 0 28 0 35 0 
1537 -1.080131402491463 0.3896222318784574 0.12313317111601185 119 108 112 0.59 23 0 25 0 26 0 
1538 0.45070618010826236 0.06552487567782783 -0.40999172537286455 51 55 60 1.45 23 0 24 0 25 0 26 0 28 0 29 0 
1539 1.2805199566647687 0.13236086153483745 -0.3436594399517622 134 121 107 0.53 23 0 25 0 32 0 
1540 -1.0760468823613532 0.1407988185505284 -0.29354961462893414 37 31 33 1.58 23 0 25 0 28 0 
1541 -1.2473031590755217 0.08149923071660797 -0.4006662184717791 94 108 112 1.56 23 0 26 0 35 0 
1542 -1.0170065955777106 0.15219154438308274 -0.3215583653856283 76 54 52 0.7 23 0 24 0 25 0 26 0 27 0 28 0 29 0 
1543 -0.34058604129680986 0.10517831277711132 -0.40876810942169417 68 48 44 1.3 23 0 26 0 28 0 
1544 -0.4078761576327916 0.38830408506926434 0.07154344332993878 113 114 109 0.95 23 0 26 0 27 0 28 0 
1545 -0.930557984570479 0.15906495352129424 -0.34271970348744185 60 51 44 0.76 23 0 24 0 25 0 26 0 27 0 28 0 29 0 32 0 
1546 0.5658809176606402 0.43622672967971704 0.13337162148968928 135 140 146 1.14 23 0 24 0 25 0 26 0 27 0 28 0 32 0 34 0 
1547 -0.45526883515813954 0.15808987378987482 -0.3354124479055819 97 89 85 0.58 23 0 24 0 34 0 
1548 -0.35353415467237376 0.3681306567005925 0.018773843505976773 62 47 42 0.76 23 0 24 0 25 0 26 0 27 0 
1549 -1.1776781483088516 0.1494137100960391 -0.36658232280530656 98 99 106 0.47 23 0 26 0 32 0 
1550 1.2137917420057682 0.1779201644763087 -0.34868402221217254 124 109 102 2.16 23 0 25 0 26 0 28 0 
1551 -0.31300817377021645 0.1507159485984076 -0.36605955480196983 67 47 43 0.73 23 0 24 0 25 0 26 0 27 0 28 0 29 0 34 0 
1552 0.5862300765832329 0.4467578707147734 0.13190885300259458 123 127 132 0.67 23 0 25 0 26 0 28 0 
1553 -0.4310656656939879 0.14604388039363753 -0.3885478706547092 129 119 106 0.32 23 0 24 0 25 0 32 0 
1554 -0.35473105659118054 0.1638940722128987 -0.370725021187002 150 147 142 0.57 23 0 24 0 25 0 26 0 27 0 
1555 -0.27760444434757525 0.17012404308131418 -0.3683847658219235 25 22 23 0.64 23 0 24 0 25 0 26 0 27 0 28 0 29 0 
1556 -0.314302003352109 0.16600250352848478 -0.3726469494604153 105 81 69 0.43 23 0 24 0 26 0 
1557 0.7554064144126202 0.3383129435832167 -0.08682463464959522 39 34 35 0.62 23 0 24 0 25 0 
1558 -0.34935111468743807 0.4030846945751731 0.0348185412512072 19 18 20 0.26 23 0 24 0 25 0 
1559 -0.9068775249580548 0.4737240586412383 0.13826501910192446 51 59 78 0.34 23 0 24 0 26 0 
1560 0.7673389327327085 0.3640694971430591 -0.05150983781057861 55 57 64 0.53 23 0 24 0 25 0 26 0 27 0 
1561 -0.20794266273681136 0.1955593295835279 -0.3407277468358705 35 26 27 1.95 23 0 24 0 25 0 26 0 27 0 28 0 29 0 32 0 
1562 0.57075065845615 0.46162612755676685 0.11868207660700125 129 132 138 0.51 23 0 24 0 25 0 26 0 28 0 32 0 
1563 -1.049574269381425 0.23301925783799426 -0.3199854063813833 65 57 58 1.23 23 0 24 0 25 0 26 0 27 0 
1564 0.7903401221123143 0.3720698270428959 -0.0625043058445709 31 32 32 0.46 23 0 24 0 25 0 26 0 27 0 
1565 -0.9057719542984932 0.5263305663278655 0.18150162171103712 56 69 92 0.45 22 0 23 0 24 0 25 0 26 0 
1566 0.5719313548090881 0.47907606265298536 0.10826539736635332 131 136 142 0.51 23 0 24 0 25 0 26 0 27 0 
1567 0.47238610897330235 0.20836786968505233 -0.37911637657215447 113 103 87 0.62 23 0 24 0 25 0 26 0 27 0 28 0 29 0 
1568 -1.0139685019435047 0.23009918681614405 -0.3656318759523859 71 63 62 1.56 22 0 23 0 24 0 25 0 26 0 27 0 28 0 
1569 -0.9415758787313468 0.5203471460856828 0.14706136977640194 57 72 90 2.84 22 0 23 0 24 0 25 0 26 0 
1570 -0.4524068803003315 0.22241359604344985 -0.37852131461600924 124 122 116 1.62 23 0 24 0 25 0 27 0 34 0 
1571 -0.9113394670034748 0.5608213977564405 0.2005893597460492 61 76 95 0.81 23 0 24 0 25 0 26 0 28 0 29 0 
1572 0.8486609902079518 0.4002352449559435 -0.06328875943993595 18 15 17 0.42 23 0 24 0 25 0 26 0 
1573 -0.2872021513014256 0.21764759270862494 -0.3981290508280694 60 42 38 0.33 23 0 24 0 28 0 
1574 0.2333118502604813 0.23548929196112262 -0.3878123266870156 113 93 78 0.12 23 0 24 0 25 0 
1575 -0.4985897128793136 0.5046476313047281 0.08139235709312775 127 123 126 1.13 23 0 25 0 26 0 28 0 32 0 
1576 -1.030507270597131 0.25176125854473375 -0.4050461687249861 100 92 87 0.48 23 0 25 0 26 0 
1577 -0.5407126759291245 0.49423151559995754 0.05895445342542638 115 113 114 0.59 23 0 24 0 25 0 26 0 27 0 29 0 32 0 
1578 -1.0870734096229242 0.5096950770638959 0.0627925552827352 138 144 148 1.18 23 0 25 0 26 0 27 0 29 0 32 0 
1579 0.7199128289579801 0.4554031947865151 -0.003936172750453437 82 65 54 0.64 23 0 24 0 25 0 
1580 0.1974343452196191 0.4560013768628273 -0.00013943409382399796 53 52 57 0.38 23 0 24 0 25 0 
1581 -1.0611525658174485 0.2684339021757521 -0.41320008113035334 100 92 84 0.89 23 0 25 0 26 0 
1582 -0.9304031201542127 0.5357240099967797 0.09144564556769963 45 36 34 0.77 23 0 24 0 25 0 26 0 
1583 -0.975939041471272 0.5640659335881018 0.14480123676712908 54 60 72 1.25 23 0 24 0 25 0 26 0 
1584 0.5574994050622087 0.5432693711774299 0.1464051066157942 104 102 103 1.07 23 0 24 0 25 0 
1585 -0.5551876987850399 0.5098522965032477 0.05596746252018059 131 128 128 0.96 23 0 24 0 27 0 28 0 
1586 -0.36271627276377233 0.6146182612486881 0.24898828622699198 55 60 68 0.49 23 0 24 0 26 0 
1587 0.6815787905573425 0.5043013061957156 0.05488163231401211 150 151 144 0.61 23 0 25 0 26 0 
1588 0.13823050079527766 0.5243701428120464 0.07080140024112869 132 130 129 1.53 23 0 25 0 26 0 27 0 29 0 
1589 -0.9992716915630697 0.5947411667452953 0.1545980852056693 42 39 46 3.23 23 0 25 0 26 0 27 0 
1590 -0.9083946390314365 0.5702548772392715 0.10559795668186067 78 83 88 0.95 22 0 23 0 24 0 25 0 26 0 
1591 -0.9099904445880319 0.5600495740024012 0.08323532140722001 45 52 55 0.66 23 0 24 0 25 0 26 0 
1592 -0.9369748855017536 0.5752148521603087 0.10991151906219232 76 83 86 0.79 23 0 24 0 25 0 26 0 
1593 -0.2623149786021576 0.2796735811189109 -0.45198227992626605 64 51 49 0.54 23 0 25 0 26 0 27 0 28 0 29 0 
1594 -0.3528304849704685 0.496042180794041 -0.026062735418812655 28 22 23 0.4 23 0 24 0 26 0 
1595 -0.3616080999500124 0.652271973358632 0.2789885557734936 53 54 58 1.39 23 0 24 0 25 0 26 0 
1596 -0.3972213939203118 0.6555820325524293 0.2790298053180694 122 121 119 3.75 23 0 24 0 25 0 26 0 29 0 
1597 -0.31363206504835206 0.29049813283328396 -0.43183676815040806 123 108 97 0.84 23 0 24 0 25 0 28 0 29 0 
1598 -1.3014645831766771 0.5469425546542943 0.010207648554395488 95 90 96 0.51 23 0 25 0 27 0 28 0 
1599 0.32447756967283636 0.29264282839077566 -0.4286116475456132 101 77 63 0.66 23 0 24 0 25 0 26 0 
1600 0.8601464406866131 0.5655628314992682 0.10405381303882211 33 43 33 0.96 23 0 25 0 26 0 
1601 0.3681373769314129 0.3005736556394163 -0.43627988726971967 84 58 47 0.23 23 0 24 0 26 0 
1602 -0.35148219418305693 0.6618741044481746 0.24139284954793105 46 36 33 1.51 23 0 24 0 25 0 
1603 -0.34091417150691167 0.6589341432889533 0.23491189333016937 55 44 40 0.62 23 0 24 0 25 0 
1604 -1.2913535981222168 0.5682551824418718 -0.033113177942054484 23 25 26 1.14 23 0 25 0 27 0 28 0 29 0 
1605 -0.054950148946462274 0.7137162828076602 0.34153570919269927 39 44 48 0.44 23 0 24 0 25 0 26 0 
1606 -0.900476875180475 0.5906981790460968 0.03734864524130732 64 56 55 0.95 23 0 24 0 25 0 26 0 27 0 28 0 29 0 
1607 -0.9370059009150908 0.7022055312864388 0.26497944985046173 31 32 39 4.27 23 0 25 0 26 0 27 0 29 0 
1608 -0.6812059692063267 0.6142795266816341 0.08509428008107578 22 22 27 0.72 23 0 24 0 25 0 
1609 0.025039030913343474 0.5860573822807789 0.0657796053076668 54 64 65 2.34 23 0 24 0 25 0 26 0 27 0 29 0 
1610 0.29516331863402356 0.3806747987377705 -0.3634322623009698 102 84 74 3.33 23 0 24 0 25 0 26 0 
1611 0.24866079439446664 0.3388548039855445 -0.454666957352055 119 98 85 0.51 23 0 24 0 25 0 
1612 0.7181576753379382 0.6091789974144626 0.10837302686401118 98 88 88 0.96 23 0 24 0 25 0 26 0 28 0 32 0 34 0 
1613 -0.9415769444851374 0.6650702523645584 0.13070457491691012 41 44 49 1.56 23 0 25 0 26 0 
1614 -0.9041284114837776 0.6377414464027189 0.05206065345911892 65 54 53 0.58 23 0 24 0 26 0 27 0 
1615 -0.8866974344768666 0.6333831365766724 0.046860048943410004 81 71 72 3.39 23 0 24 0 25 0 26 0 27 0 28 0 29 0 
1616 0.4711396336242304 0.6204340941932251 0.08240419515949615 44 41 43 4.65 23 0 24 0 25 0 26 0 27 0 28 0 29 0 
1617 0.1676894399290555 0.6446602159231944 0.11764927099506062 88 67 62 1.84 24 0 25 0 26 0 27 0 28 0 29 0 
1618 0.08361238498700779 0.6597803002672606 0.15285746594403393 116 110 108 2.91 23 0 24 0 25 0 
1619 0.40412274900243983 0.5935710810012909 0.01827630804059499 63 48 50 0.35 23 0 24 0 25 0 26 0 27 0 28 0 29 0 
1620 -0.9423514381916259 0.7297185301707505 0.19006936853523604 19 21 25 1.17 23 0 25 0 26 0 
1621 -1.2215927034130476 0.7090328682499116 0.12142188700084933 63 65 68 0.37 23 0 25 0 27 0 29 0 32 0 
1622 0.3156377940188232 0.6062654932163538 0.010657374202927783 59 52 54 0.31 23 0 24 0 25 0 26 0 27 0 
1623 0.7184084419106989 0.6380548652376499 0.08892661689334236 64 52 52 0.42 22 0 23 0 24 0 25 0 26 0 28 0 
1624 -0.8142843769896373 0.7061959727220386 0.12186567352790345 120 109 113 1.14 23 0 24 0 25 0 27 0 29 0 32 0 
1625 0.6986870964812082 0.6478160278514085 0.0775781181044658 74 64 67 0.61 22 0 23 0 24 0 25 0 26 0 28 0 
1626 0.11347570433607684 0.6622690684483332 0.08583545686121796 76 70 73 1.17 23 0 24 0 25 0 26 0 27 0 28 0 29 0 
1627 0.42404605553548724 0.6652977563068829 0.10198874373833966 92 84 85 4.38 23 0 24 0 25 0 
1628 0.9109676292946625 0.7036277070176422 0.18516640075008783 17 28 23 0.42 23 0 24 0 25 0 28 0 32 0 
1629 -0.9031323080543714 0.806991282633817 0.28673406897234266 22 27 36 0.63 23 0 25 0 28 0 29 0 32 0 
1630 0.8054843843599373 0.6475854937374559 0.040429038376100235 16 14 15 4.0 22 0 23 0 25 0 26 0 32 0 
1631 -0.1439487651230686 0.6767065400522245 0.04105428097218733 104 97 98 0.94 24 0 25 0 26 0 27 0 29 0 
1632 -0.8218687427429714 0.7413453377600547 0.10653171791135885 115 108 114 1.01 23 0 24 0 25 0 26 0 27 0 28 0 29 0 32 0 
1633 1.1988436377559586 0.6992806783434764 0.14230862949713285 74 76 46 1.78 23 0 24 0 26 0 
1634 0.7207076223097308 0.6781474037577779 0.06161708272909594 45 35 36 0.27 23 0 24 0 25 0 26 0 
1635 1.4032264316698446 0.6375497224341009 -0.01848273447319093 41 52 25 0.41 23 0 24 0 26 0 
1636 0.8184913521374362 0.646225012779984 -0.023143780033220485 16 14 15 0.56 23 0 24 0 25 0 26 0 28 0 
1637 0.40430026849626377 0.7166468750813275 0.12584716806147822 119 109 110 0.43 23 0 24 0 25 0 26 0 27 0 28 0 29 0 
1638 1.269972147353758 0.7034510663200741 0.12795204881309485 117 134 95 2.93 23 0 24 0 26 0 34 0 
1639 -1.0459551972026515 0.8083726801664313 0.17920715660532827 22 21 21 1.17 23 0 25 0 27 0 
1640 1.1194908644557326 0.7032519870664677 0.10200313161604246 38 42 38 0.27 23 0 24 0 26 0 
1641 0.8566980773613435 0.7082572513298373 0.10933511376682914 18 21 18 0.24 23 0 24 0 25 0 
1642 -0.9024628847625523 0.8182307099674804 0.21147898722784209 25 25 30 0.43 23 0 25 0 26 0 27 0 28 0 29 0 
1643 1.392555530908278 0.663659681429067 0.014348716583635235 114 143 127 0.43 23 0 24 0 26 0 
1644 -0.2070790165778816 0.7437918582691461 0.10714939582798821 103 98 101 0.35 23 0 24 0 25 0 26 0 27 0 28 0 
1645 -0.3577911311024482 0.8045003215721906 0.22352996032625116 31 28 34 0.48 23 0 24 0 25 0 26 0 
1646 -0.748583850196668 0.8054827757614142 0.16995714694758368 12 11 10 1.54 22 0 23 0 24 0 25 0 26 0 27 0 28 0 29 0 
1647 -0.1450552518325332 0.7776689037995168 0.17292270916382713 107 90 91 0.55 23 0 24 0 25 0 26 0 27 0 28 0 29 0 
1648 0.4032675930142823 0.7355772229204494 0.11629044553597845 61 47 47 0.41 23 0 24 0 25 0 26 0 27 0 28 0 
1649 0.5042518558463968 0.7411025341205943 0.12812584195291554 37 47 54 2.57 23 0 25 0 26 0 27 0 28 0 
1650 -0.022010109188032256 0.7792321581430746 0.17428296904720952 83 63 63 0.6 22 0 23 0 25 0 26 0 27 0 
1651 -0.5726351552598538 0.8157878716614018 0.19814815757972182 18 12 12 1.75 22 0 23 0 24 0 25 0 26 0 27 0 28 0 29 0 
1652 -0.5902324329607584 0.8424189705521914 0.23409222532293172 79 60 57 2.66 23 0 24 0 25 0 26 0 27 0 28 0 29 0 
1653 0.2207220842919515 0.7813121254808 0.17251323620132963 82 58 55 0.34 23 0 24 0 25 0 
1654 -0.21414117166050559 0.8099914502495285 0.16770155734777747 17 20 19 0.38 23 0 24 0 25 0 26 0 
1655 0.17471859402392398 0.7952597961784953 0.17094609876120093 61 49 49 0.61 23 0 25 0 26 0 27 0 28 0 
1656 -0.1444600140852496 0.8066763012843967 0.15939516586828384 20 17 16 0.57 23 0 24 0 25 0 26 0 27 0 28 0 29 0 
1657 -0.7190623556498528 0.8932417278600684 0.30946522709717417 100 79 77 0.54 23 0 25 0 27 0 28 0 29 0 
1658 0.587250084458179 0.7808315614246153 0.16759314307180018 120 103 102 0.41 23 0 24 0 25 0 26 0 
1659 0.8133828367159843 0.7872678696602529 0.1767087197545555 62 56 53 0.86 23 0 24 0 25 0 26 0 28 0 32 0 34 0 
