# 3D point list with one line of data per point:
#   POINT3D_ID, X, Y, Z, R, G, B, ERROR, TRACK[] as (IMAGE_ID, POINT2D_IDX)
# Number of points: 471, mean track length: 4.13
1389 -1.3166512999385882 0.26399016378799317 -0.0279040327384239 106 114 123 0.33 58 0 62 0 64 0 
1390 -0.6180353540406469 0.23311104635960161 -0.0263550016122458 125 127 132 0.89 58 0 62 0 63 0 65 0 
1391 0.4850270822396703 0.354894337880203 0.010222530255851403 194 207 211 0.3 58 0 62 0 63 0 64 0 
1392 0.7269766461023046 0.1660324095726196 0.009673086028723521 97 97 109 0.65 58 0 62 0 64 0 65 0 
1393 0.603516090850799 -0.566986189193437 -0.005477247132094076 124 112 100 0.34 58 0 62 0 63 0 64 0 
1394 0.2917213752018133 0.20748284786299703 0.007394751186407644 182 183 183 0.52 58 0 62 0 64 0 
1395 0.5020859871165098 -0.3415645308903545 -0.008806642657401387 130 117 109 1.52 58 0 62 0 64 0 
1396 -0.648557108544694 0.0036784788844700933 -0.021495752723738493 92 81 85 1.46 58 0 62 0 63 0 
1397 -0.08548109651576197 -0.32892071433897396 -0.009923167183729209 107 94 93 0.57 58 0 62 0 63 0 67 0 
1398 0.8022875595647274 0.11389742615175336 0.0034102645134264087 167 165 164 0.69 58 0 62 0 63 0 64 0 65 0 67 0 
1399 0.6248054300704162 -0.28240421819384726 -0.0216584678444407 141 129 124 1.04 58 0 62 0 64 0 
1400 0.6607360114488883 0.5891313798560467 0.011318713266094793 183 175 172 1.03 58 0 62 0 64 0 65 0 
1401 0.6737913636872264 -0.5973345401602427 -0.01170104675163608 97 89 78 0.79 58 0 62 0 63 0 
1402 0.5382397280371713 -0.5971879341224922 -0.010497598570967437 111 83 72 0.81 58 0 62 0 63 0 64 0 65 0 
1403 0.7107038846726492 -0.07440460670430926 0.005973835596088328 144 136 139 0.34 58 0 62 0 63 0 
1404 0.06826818987248917 -0.002565540736497618 -0.0003030988529078016 135 127 119 0.48 58 0 62 0 63 0 64 0 65 0 
1405 -0.5804961648202966 0.03189279408989132 -0.023045172827165228 166 158 150 0.45 58 0 62 0 63 0 65 0 
1406 0.3545271541999375 -0.010520584319179294 0.003045381092809274 108 88 88 1.1 58 0 62 0 63 0 
1407 -0.4414406538908029 0.4189734128391089 -0.00038180749524552304 164 157 155 0.86 58 0 62 0 64 0 
1408 0.7647927664322003 0.5197518554910194 0.011867880854393276 159 158 161 0.66 58 0 62 0 63 0 67 0 
1409 -0.011312027531032998 0.2452352727343921 -0.0024062494024483794 158 147 147 0.57 58 0 62 0 65 0 
1410 -1.4237332151252513 0.848282653130241 -0.0013827975365028333 62 50 51 0.95 58 0 62 0 63 0 64 0 65 0 
1411 -1.1894247918147818 0.1553828760255917 -0.01195504194453334 161 151 149 0.8 58 0 62 0 63 0 65 0 67 0 
1412 -0.4680285656814561 0.12599005703920146 -0.01851087302193921 159 153 150 1.01 58 0 62 0 65 0 
1413 0.46347175048810074 0.23539851527347816 0.005841193537430733 158 154 154 0.27 58 0 62 0 63 0 
1414 0.38108181066092306 0.079572578219539 -0.0028593617217316236 116 113 112 0.97 58 0 62 0 63 0 64 0 67 0 
1415 0.8008442777201792 0.0610735900027482 0.012384717295219394 100 99 102 0.66 58 0 62 0 63 0 67 0 
1416 0.3621749709170574 0.0796323959751088 -0.005394853008435785 112 109 108 0.55 58 0 62 0 63 0 64 0 65 0 67 0 
1417 0.3542354531419749 0.46995251432379687 0.006686454639919459 173 165 160 0.45 58 0 62 0 64 0 65 0 
1418 -0.5780299937155802 0.6009562051662287 -0.012668040788368584 170 168 167 0.47 58 0 62 0 64 0 
1419 -0.3943999200038443 0.46496552282595177 -0.002626454964802738 112 107 112 0.72 58 0 62 0 64 0 
1420 0.7290010863629 -0.05783622998112581 0.003244621412721971 117 107 107 0.21 58 0 62 0 63 0 
1421 0.5482357195320693 -0.1798354646973947 -0.003689048452860222 137 121 121 0.51 58 0 62 0 64 0 
1422 -0.9328345090847299 0.6360381982527654 0.0160879902026847 171 162 156 1.56 58 0 62 0 64 0 65 0 
1423 0.7959174705472856 -0.002483768741096015 0.0034806302868195527 115 109 107 0.51 58 0 62 0 67 0 
1424 0.3708588734756886 0.2963204290823452 0.004945849838138283 175 165 166 0.64 58 0 62 0 65 0 
1425 0.45446291836102803 0.056348336579639224 0.016104967677906368 137 128 131 0.72 58 0 62 0 64 0 
1426 -0.24948896986488955 -0.3855514474863589 -0.02637166049069184 118 104 106 1.56 58 0 62 0 63 0 64 0 
1427 0.21998356542053266 -0.20534669611517237 -0.029190497573475804 28 19 23 1.03 58 0 62 0 63 0 65 0 67 0 
1428 0.2885547598465461 -0.20721743163010797 -0.02380655065561199 34 25 29 0.38 58 0 62 0 63 0 67 0 
1429 0.3365504456504247 -0.20819370175531005 -0.02476047833558459 45 31 36 1.67 58 0 62 0 63 0 65 0 67 0 
1430 0.6730939996955849 0.03497301628848337 0.016848849333840565 127 119 121 0.86 58 0 62 0 63 0 65 0 
1431 0.2706612447767558 0.45256949959390674 0.007673948181533108 163 158 156 0.56 58 0 62 0 64 0 65 0 
1432 -0.09160202958335495 -0.17899895285041528 -0.024834657525780512 126 111 111 2.07 58 0 62 0 63 0 64 0 65 0 
1433 -0.4483202910344351 -0.15581462264766038 -0.03206949431813455 98 87 88 0.7 58 0 62 0 65 0 
1434 -0.30908268738631184 -0.16218734731998274 -0.007714104049648229 105 91 92 0.36 58 0 62 0 64 0 
1435 0.5565924134544287 -0.19409168083556871 -0.006406582603238675 121 110 107 0.68 58 0 62 0 63 0 64 0 65 0 
1436 0.3360184194481224 -0.07302047936033845 -0.032285586173689707 39 25 29 0.4 58 0 62 0 64 0 
1437 0.8299683943756224 0.3678351771158213 0.00966803146961448 137 135 135 0.97 58 0 62 0 64 0 65 0 
1438 0.31600002825567186 -0.20839660715183955 -0.025035764250004977 32 22 25 1.12 58 0 62 0 63 0 64 0 65 0 67 0 
1439 0.1381546723703413 0.14924803433137562 -0.001965204770215001 155 154 153 0.6 58 0 62 0 64 0 65 0 
1440 0.6107899240772328 0.5438638360762713 0.01125387054884941 158 148 145 0.52 58 0 62 0 63 0 64 0 65 0 67 0 
1441 0.03273601323354136 -0.44960621186527455 -0.01651715622730876 131 123 115 1.22 58 0 62 0 63 0 64 0 65 0 
1442 0.5914260563464278 0.07378903886406002 0.0032565619570850135 160 154 154 0.85 58 0 62 0 63 0 
1443 0.4265245728275011 -0.6993480600981412 -0.023389339023252687 55 59 66 0.81 58 0 62 0 67 0 
1444 -0.5006582199515931 -0.651435043153707 -0.04241624360484764 73 71 74 1.41 58 0 62 0 63 0 64 0 
1445 0.5042279276204267 -0.5929177541883782 -0.009247073460506572 145 133 125 0.16 58 0 62 0 64 0 
1446 0.3382010574313892 -0.007926021389353 0.004464143154708777 119 104 103 0.81 58 0 62 0 63 0 64 0 65 0 
1447 0.8147054249616283 0.24109871437777902 0.01190326049679502 157 152 152 0.47 58 0 62 0 65 0 
1448 -0.6532881835990966 0.7654086036507404 0.012050926720863941 150 163 168 0.68 58 0 62 0 63 0 64 0 
1449 -0.4907303530688061 -0.39125639466225665 -0.027089874632744593 126 117 113 0.45 58 0 62 0 63 0 
1450 0.5860082667304989 -0.4613855793106766 -0.010976668510945142 115 104 101 0.38 58 0 62 0 63 0 64 0 
1451 -1.1271376565653741 0.5494482882631846 -0.012489495200646239 166 168 168 0.39 58 0 62 0 63 0 
1452 0.4882926651780706 -0.34207054433994294 0.0013280467574836585 107 95 93 0.94 58 0 62 0 63 0 65 0 
1453 0.767196310526131 0.2790247497137102 0.0015902717544657996 148 141 137 1.32 58 0 62 0 65 0 
1454 0.42853139907442683 0.10475878432912133 0.001805075817114199 149 140 138 0.44 58 0 62 0 64 0 
1455 0.5907390166567648 -0.22463413601860538 -0.0005062972286478118 125 114 114 0.91 58 0 62 0 63 0 65 0 
1456 -0.8004191738916555 -0.6291473966907273 -0.039343297218364714 49 39 45 0.2 58 0 62 0 63 0 64 0 
1457 -0.13030827231346864 -0.23959029265354126 0.004476654315116901 127 124 123 0.59 58 0 62 0 64 0 
1458 0.5232235185277734 -0.2959866536622439 -0.0008827159824977837 123 108 106 1.47 58 0 62 0 63 0 64 0 65 0 
1459 -3.446553281523211 2.55968956628138 -1.293124189420222 205 198 211 0.23 62 0 63 0 64 0 
1460 -0.5151660889512126 0.9375732827668759 -0.0015037330770479862 122 138 153 0.55 62 0 63 0 64 0 65 0 67 0 
1461 -0.67857985979929 0.9687194631083371 0.004388222363633787 161 177 185 0.37 62 0 63 0 64 0 65 0 
1462 -5.042142998341235 3.1745085270960915 -1.6318319203018088 236 252 255 0.25 62 0 64 0 65 0 
1463 -0.5560803365352449 0.932430353055419 0.0015738373623597202 165 164 169 0.12 62 0 64 0 65 0 
1464 0.7078385187592626 0.6155641481908036 -0.006210164929077333 171 164 162 1.0 62 0 63 0 64 0 
1465 -0.6984583251678717 0.9622087091719262 -0.00014681601970489844 141 148 167 0.43 62 0 63 0 64 0 67 0 
1466 0.9610192220440903 0.5337455566743283 0.013445383514615328 124 119 117 0.18 62 0 64 0 65 0 
1467 0.6672905431231186 0.6062988418141262 0.012447696836163313 122 124 126 0.4 62 0 63 0 64 0 65 0 
1468 0.9458916867198675 0.5319509685197024 0.018867943477305582 164 152 145 0.31 62 0 64 0 65 0 67 0 
1469 0.8678897887124744 0.5445644805462282 0.024562266866058557 175 170 166 0.73 62 0 64 0 65 0 
1470 0.9284499530981598 0.5347086686606037 0.015425488679377208 172 162 152 0.45 62 0 63 0 64 0 
1471 -4.807838594168324 3.036979940130081 -1.5983715163954288 14 70 113 0.45 62 0 64 0 65 0 
1472 0.019825948084971734 0.7577716009951978 0.008252431719755204 144 146 154 0.25 62 0 63 0 65 0 
1473 0.6040737040427737 0.6060708603885674 0.02810114973861033 176 168 168 0.35 62 0 63 0 65 0 
1474 0.908231812827454 0.5361853314725278 0.013318825279332813 147 134 134 0.13 62 0 63 0 64 0 
1475 -0.09321083401881325 0.7769264610799091 0.015145999269180699 102 101 107 0.4 62 0 63 0 64 0 65 0 67 0 
1476 0.12122081655455164 0.7175561361618612 0.012854845589179709 154 157 159 0.34 62 0 63 0 64 0 65 0 
1477 0.7526574470561256 0.5625042506509308 0.018387700901729698 99 119 128 0.37 62 0 63 0 64 0 65 0 67 0 
1478 0.8694973624596025 0.5486242621659334 -0.005197628609770577 167 160 159 1.22 62 0 63 0 65 0 
1479 0.0982789571694419 0.7103611818788418 0.020043470252042894 114 119 128 0.42 62 0 63 0 64 0 65 0 67 0 
1480 0.7800918713250662 0.5544911550514864 0.013150422836114561 171 163 163 0.68 62 0 63 0 65 0 
1481 -0.24538605392484314 0.8038277666107561 0.0005542740133652746 123 129 138 0.32 62 0 63 0 65 0 
1482 0.7320750850872388 0.5533035488182012 0.018257594325356008 160 159 159 0.35 62 0 63 0 64 0 65 0 
1483 0.8744955072378764 0.5223545666256617 0.014000955068973253 176 175 176 1.02 62 0 63 0 64 0 65 0 
1484 0.5145368568031174 0.6047728171244124 0.014558453080352418 164 158 155 0.31 62 0 63 0 64 0 65 0 67 0 
1485 -0.810076385850054 0.9387755840532692 -0.0022030812840667657 156 169 175 0.35 62 0 63 0 67 0 
1486 0.6953423015194418 0.5588648740034949 0.012353664067809467 115 112 116 0.55 62 0 63 0 64 0 67 0 
1487 0.7963258626096805 0.534602799211706 0.013936341382007944 136 132 137 0.47 62 0 63 0 65 0 
1488 0.9059853152246533 0.5052814624772277 0.015081793139318123 158 148 147 0.48 62 0 63 0 64 0 65 0 67 0 
1489 0.6165323816266097 0.5700909280976427 0.01213344451550813 157 142 140 0.5 62 0 63 0 64 0 65 0 
1490 0.6279609858469062 0.5661784002509422 0.013510813795229781 147 149 152 1.25 62 0 63 0 67 0 
1491 0.8867233596048836 0.506039013539969 0.014509748338203066 177 172 167 0.93 62 0 63 0 64 0 65 0 67 0 
1492 -4.973691803779487 2.859766738885491 -1.4651179270037278 234 247 254 0.46 62 0 64 0 65 0 
1493 0.662118385553035 0.5611569218030479 0.006970193445804185 136 125 126 0.55 62 0 63 0 64 0 
1494 0.38321704534442835 0.6203363138084599 0.010670120559142848 127 122 123 0.26 62 0 65 0 67 0 
1495 0.5772473066151991 0.5700308567034393 0.014408981304280255 162 157 157 0.86 62 0 63 0 65 0 
1496 0.7781183944786152 0.5221807945965737 0.010781303639376683 136 132 135 0.9 62 0 63 0 64 0 65 0 67 0 
1497 -3.3588674037452035 2.316846202172136 -1.2987178580573375 107 123 122 1.02 62 0 63 0 64 0 
1498 0.03657282785057614 0.6928979513791789 0.0017053486875917567 168 162 162 0.58 62 0 63 0 65 0 
1499 0.8935117507492434 0.48851873184440203 0.016486776326043673 167 155 150 0.38 62 0 63 0 64 0 65 0 67 0 
1500 0.8096494233181091 0.5034510654497826 0.022055809550107774 166 162 160 0.49 62 0 63 0 64 0 65 0 
1501 0.9448928982469362 0.47318393752046567 0.014635313173270825 134 128 120 0.96 62 0 63 0 64 0 65 0 67 0 
1502 0.7372735768274759 0.514216924612483 0.025244698420814116 126 102 110 0.42 62 0 63 0 64 0 
1503 -4.984165792376469 2.766392488785705 -1.4645235282074098 217 226 231 0.21 62 0 64 0 65 0 
1504 0.4218707056165796 0.5877291588416214 0.003893917900643862 157 159 157 0.47 62 0 63 0 64 0 
1505 0.6791485524657568 0.5254445881018992 0.013337110945988773 173 167 163 0.4 62 0 63 0 67 0 
1506 0.5904527907884938 0.542547635667626 0.008531380888272544 189 187 184 0.51 62 0 63 0 65 0 
1507 0.9320865812775383 0.45486888427388067 0.015018526470584437 150 154 156 0.58 62 0 64 0 65 0 67 0 
1508 0.49263457111077 0.5482868949693098 0.01877604195405347 140 130 128 0.49 62 0 63 0 64 0 
1509 0.5492276865321732 0.5345955517149914 0.018975237199104544 172 156 150 0.78 62 0 63 0 64 0 65 0 
1510 0.8330337083560366 0.47524784108979073 0.01647105833397644 167 161 160 0.35 62 0 63 0 65 0 
1511 0.17711553475603892 0.6196249286977602 0.007850340680144674 149 148 147 0.41 62 0 63 0 64 0 65 0 67 0 
1512 0.888538703327912 0.45857882721823656 0.016333005369677744 157 153 156 0.72 62 0 63 0 64 0 65 0 67 0 
1513 0.913251435053003 0.4542580960121943 0.016092254760406766 123 114 123 0.34 62 0 63 0 64 0 65 0 67 0 
1514 -0.37707686140103025 0.7485643381120672 0.0031692779329997034 153 133 128 0.45 62 0 63 0 64 0 
1515 0.7999620933294558 0.4801679856065079 0.006606260078820592 185 182 178 0.7 62 0 63 0 65 0 67 0 
1516 0.632339408687081 0.511810111706686 0.011960678601230512 142 131 128 2.03 62 0 63 0 64 0 65 0 
1517 0.94358449629158 0.4400478708677445 0.014283842267640123 170 173 171 0.73 62 0 64 0 67 0 
1518 0.5452819382580387 0.5271908077210219 0.012398140161053783 178 173 166 0.33 62 0 63 0 65 0 
1519 0.8466417628120173 0.46162831869081905 0.01358449588176236 176 172 169 0.67 62 0 63 0 64 0 67 0 
1520 -0.044899410715775745 0.6557356899168199 0.004313552407791299 163 139 125 0.24 62 0 63 0 67 0 
1521 0.9442942483203196 0.4287723919659668 0.012311242960103996 160 157 156 0.63 62 0 64 0 65 0 67 0 
1522 0.13231659214094993 0.6016290380266174 0.005707541667096194 136 133 134 0.26 62 0 63 0 65 0 
1523 0.6095721234956131 0.5058673568705192 -0.0019422434129547916 161 161 161 0.96 62 0 64 0 65 0 
1524 0.922197430326041 0.426812594866638 0.016064897587321436 158 148 148 0.31 62 0 63 0 64 0 65 0 67 0 
1525 0.7449744469586081 0.46097470476809727 0.013708306907150414 163 151 150 0.35 62 0 63 0 65 0 
1526 0.8822968611121744 0.42603716544521936 0.018594412511884206 152 150 154 0.66 62 0 63 0 64 0 65 0 67 0 
1527 -0.5755293220652871 0.7509878745740901 0.0025238137697869423 172 157 151 0.91 62 0 63 0 64 0 65 0 
1528 0.4193965650562925 0.5222751280299982 0.018887645322811508 157 154 157 0.33 62 0 63 0 65 0 
1529 0.47613495357445124 0.5126355836697862 0.012202031247908085 163 153 147 0.28 62 0 63 0 65 0 
1530 0.7964788439860215 0.4484396769978987 0.007222471174395784 137 134 132 0.67 62 0 65 0 67 0 
1531 0.9448985496917055 0.4085726127873515 0.01623409090651684 192 185 177 0.59 62 0 63 0 64 0 65 0 67 0 
1532 -0.09558521790998908 0.6363018450763109 0.0016623877364345674 151 140 135 0.3 62 0 63 0 64 0 
1533 0.4395986475039655 0.5136392111539789 0.01745065237636023 141 133 135 0.47 62 0 63 0 64 0 
1534 0.7751645481587275 0.4433978814766714 0.011665255384937678 190 187 182 0.34 62 0 63 0 65 0 
1535 0.9172210808562937 0.4102373942220057 0.016669275066807154 168 160 152 1.39 62 0 63 0 64 0 67 0 
1536 0.8096934621008909 0.43700250225371134 0.005504655154692895 177 175 170 0.9 62 0 63 0 64 0 65 0 
1537 0.8970755947318896 0.4182278650993034 0.0037056412693163843 115 108 106 0.62 62 0 65 0 67 0 
1538 0.5605410615052475 0.4842950295629214 0.005145104572827908 163 159 157 1.08 62 0 63 0 67 0 
1539 0.8701923175088371 0.4140290827277641 0.013429380905548571 139 130 130 0.37 62 0 63 0 64 0 65 0 67 0 
1540 0.9248553332306775 0.3974602097001834 0.01311621368339333 174 164 156 0.26 62 0 63 0 64 0 65 0 67 0 
1541 0.8486232931562128 0.41212397276686624 0.012679532964766649 131 120 114 0.56 62 0 63 0 64 0 
1542 -0.527647180212732 0.7027882494646569 0.001385384273311585 160 159 162 0.55 62 0 63 0 64 0 65 0 
1543 0.8913000008049254 0.3964407069603642 0.013369040777578833 164 157 153 1.09 62 0 64 0 65 0 67 0 
1544 0.9438037335274703 0.38128874095965354 0.011617190105549513 115 102 98 0.33 62 0 63 0 64 0 65 0 
1545 0.6809783625700523 0.43269035431619246 0.011700389560036495 134 130 127 0.73 62 0 65 0 67 0 
1546 0.42213903263865493 0.4847986826281901 0.006835823591593071 167 167 168 0.22 62 0 63 0 65 0 
1547 0.9041749202180329 0.37769547117497965 0.014170410705780956 175 170 170 0.59 62 0 63 0 64 0 67 0 
1548 0.5534363328636107 0.45078984712271947 0.005379852489381776 175 177 177 1.09 62 0 63 0 65 0 
1549 0.5393642052603402 0.4471313575801826 0.014062917952670118 161 157 156 0.38 62 0 63 0 64 0 65 0 67 0 
1550 0.7000642280160314 0.41226997857817155 0.018264706251515994 184 179 178 1.11 62 0 63 0 65 0 
1551 0.5979797645325251 0.43340759155355696 0.010126272566317818 180 174 172 0.37 62 0 64 0 65 0 
1552 -0.016192336679331287 0.561207264259822 -0.008172668858869914 157 155 155 0.45 62 0 63 0 64 0 65 0 
1553 0.9425788710004259 0.3586729404215517 0.01461630314713025 115 97 100 0.31 62 0 63 0 65 0 
1554 0.9059839067186699 0.3670287623478445 0.00888364617428139 184 183 184 1.1 62 0 63 0 64 0 65 0 
1555 -0.3037964752962756 0.605045327362318 -0.0009395890946635177 141 153 158 0.49 62 0 63 0 65 0 67 0 
1556 0.42817365090442694 0.4596270848925667 -0.00875739315215851 145 141 141 0.29 62 0 64 0 65 0 
1557 0.9247699279358514 0.3500141609282102 0.013735657251834121 125 109 98 0.32 62 0 63 0 64 0 65 0 
1558 0.6543674028763247 0.3971921176507394 0.01960113516403239 168 165 163 0.55 62 0 63 0 65 0 
1559 0.7439210823924762 0.3823643037113293 0.014798698874586735 140 130 128 0.68 62 0 63 0 64 0 65 0 67 0 
1560 0.5388954234922574 0.41665935134000925 0.014959554049534418 178 171 167 0.25 62 0 64 0 65 0 
1561 0.8901030546345654 0.3468989445528579 0.01841558133284127 159 149 148 0.3 62 0 63 0 65 0 
1562 0.909881805870763 0.3466425419380306 0.011313076585106163 139 141 143 0.3 62 0 63 0 64 0 65 0 
1563 -0.7717875413398315 0.6810827442087051 0.014438296567205411 170 162 159 1.35 62 0 64 0 65 0 
1564 0.72851861712412 0.37657982665513795 0.014878061764640016 75 85 98 0.48 62 0 64 0 67 0 
1565 0.9392762284293896 0.3314240932214216 0.013829345336500598 136 126 119 0.63 62 0 63 0 64 0 67 0 
1566 0.4786344088856045 0.41994679299647847 0.00778141466658977 153 145 140 0.39 62 0 63 0 64 0 65 0 
1567 0.754558427937843 0.3680183528945969 0.009384185972042713 166 159 158 0.44 62 0 63 0 64 0 65 0 67 0 
1568 0.8200364010145973 0.34622223998028084 0.02227132139087118 129 119 116 0.19 62 0 63 0 64 0 
1569 0.29305439980719883 0.4516300175498929 0.006230407807380045 183 186 185 0.64 62 0 63 0 64 0 65 0 
1570 0.3470268126192333 0.4374414882875796 0.003091102573893778 82 85 100 0.34 62 0 63 0 64 0 65 0 67 0 
1571 0.5040601319522193 0.40288999301170586 0.00989927504592214 166 157 154 1.66 62 0 63 0 64 0 
1572 -0.28050151239978816 0.5510993444846701 0.010879380360815372 189 180 176 0.16 62 0 64 0 65 0 
1573 0.3912795055732301 0.41686114663100066 0.009691695879377349 116 108 113 0.64 62 0 63 0 64 0 65 0 
1574 0.44957479448347093 0.4060777046066831 0.007220180020731215 153 141 134 0.45 62 0 63 0 64 0 65 0 67 0 
1575 -1.6334448842625522 0.8284147920856848 0.022809273316439116 165 152 156 0.49 62 0 63 0 65 0 
1576 -0.9211178774012311 0.6620845384139302 -0.02094429812538645 174 174 171 1.69 62 0 63 0 64 0 65 0 
1577 -0.22349382706348675 0.5158413772254125 -0.010576670954707046 136 130 131 0.21 62 0 63 0 64 0 
1578 0.8106149877042517 0.31436172331493645 0.0154711370731897 161 174 174 0.44 62 0 63 0 65 0 
1579 0.1963605786549225 0.42781810727596664 -6.983397418536264e-05 176 170 168 0.35 62 0 63 0 64 0 
1580 0.13124159628985832 0.44800496943295004 -0.023393037951646267 103 101 106 0.68 62 0 63 0 65 0 
1581 0.9310467204424895 0.2892949954498157 0.009879617519978012 163 153 142 0.44 62 0 64 0 65 0 67 0 
1582 0.3747017123352345 0.38791926127174753 0.006503349769353628 105 119 136 0.4 62 0 65 0 67 0 
1583 0.9086940393385774 0.2902759848486431 0.007265799749778257 120 114 113 0.83 62 0 63 0 64 0 65 0 67 0 
1584 -0.623429918513742 0.579275115319692 -0.006517899392649351 158 159 163 0.21 62 0 63 0 64 0 65 0 67 0 
1585 0.8109658821548276 0.3061558856383509 0.010207725303031046 162 161 158 0.41 62 0 64 0 65 0 
1586 -0.534380031823071 0.5584941676960036 -0.0028293439532027786 128 110 114 0.46 62 0 63 0 64 0 65 0 67 0 
1587 0.6146099802415739 0.338101442283313 0.011223016279441334 173 171 171 0.67 62 0 63 0 64 0 65 0 67 0 
1588 0.8866360756454914 0.28948463315052747 0.010282859661702615 153 142 141 0.33 62 0 63 0 64 0 65 0 67 0 
1589 0.28382984616908136 0.39552615487572557 0.0018315009496627788 163 157 152 0.28 62 0 64 0 65 0 
1590 0.02097094701294755 0.43675177259297443 0.004542107192193834 123 113 117 0.49 62 0 64 0 65 0 
1591 -0.10962550469369903 0.458227733325354 -0.002188146981749961 130 133 139 0.65 62 0 63 0 64 0 67 0 
1592 0.7198694913086041 0.30266639243887444 0.015593642472838232 170 163 161 0.72 62 0 63 0 64 0 65 0 
1593 0.9042825841386033 0.27151035371636595 0.01251511545037709 128 125 126 0.2 62 0 64 0 65 0 67 0 
1594 0.9207488210124934 0.2702438407046273 0.01146849424917984 165 157 148 0.69 62 0 64 0 65 0 67 0 
1595 -1.2251621710628129 0.6732974023369802 -0.015623848965543807 135 148 157 0.2 62 0 63 0 64 0 
1596 0.6665736818812431 0.3043080029448007 0.012135661440229928 162 151 148 0.38 62 0 64 0 65 0 
1597 -1.1339375914602465 0.6354436935353944 -0.017252926829141035 104 96 104 0.61 62 0 63 0 65 0 
1598 0.6753128246651587 0.28936198905647564 0.014097962736488556 181 184 185 0.49 62 0 63 0 65 0 67 0 
1599 0.4520845077863429 0.3247928414404004 0.009852293988415806 178 170 168 1.9 62 0 63 0 64 0 65 0 
1600 0.6571549247043895 0.2828647899178785 0.02862218468965816 172 166 166 1.51 62 0 63 0 64 0 65 0 
1601 -0.6392181551628264 0.5241988688858721 -0.008819023888197997 147 153 152 0.3 62 0 63 0 64 0 
1602 0.9263956823441484 0.241038318000459 0.010995903488144831 156 153 145 0.65 62 0 63 0 64 0 67 0 
1603 0.8399212335205659 0.25150533159496097 0.01611141816491357 143 147 153 0.2 62 0 64 0 65 0 
1604 0.5903365697727463 0.2938619308341129 0.0096625596268336 175 168 159 0.21 62 0 64 0 65 0 
1605 0.9051640081237824 0.23978514246236898 0.01167105324986295 137 133 132 0.61 62 0 63 0 64 0 65 0 67 0 
1606 -0.6965662536245466 0.5236768564131553 -0.008362342873462936 154 148 150 0.15 62 0 63 0 64 0 
1607 -1.1404845054845778 0.6060939221490655 -0.006626988924365973 166 155 151 0.32 62 0 63 0 64 0 
1608 -0.034722070129358795 0.3880254594213168 0.011610483707349406 109 121 131 0.27 62 0 64 0 65 0 
1609 0.4001844736568121 0.31152520973141945 0.0032048952978156464 141 132 136 0.36 62 0 63 0 65 0 
1610 0.6754165423890897 0.2562994374209116 0.01082279456120494 75 84 95 0.35 62 0 63 0 64 0 65 0 
1611 0.8932357784673541 0.22353898550763124 0.006746637574171377 125 120 127 2.91 62 0 63 0 65 0 
1612 -0.5385513736344767 0.4640497929378237 0.0010573659412158598 135 123 121 0.03 62 0 64 0 65 0 
1613 0.526373839580291 0.28102779396415106 0.005356172712321916 183 191 198 0.26 62 0 64 0 65 0 
1614 0.9251548949196844 0.20969505786302928 0.01507061589022407 155 155 152 0.75 62 0 63 0 64 0 65 0 
1615 0.41823287232605644 0.29204025728043886 0.008254431942373852 129 137 144 0.44 62 0 63 0 64 0 
1616 0.48536888628673935 0.28519027382531276 -0.007124069932432642 154 146 148 1.65 62 0 63 0 64 0 67 0 
1617 0.32274926849428276 0.29513815021761175 0.008429789572371282 158 151 147 0.58 62 0 64 0 65 0 
1618 0.747097546908396 0.229208792977677 0.007177525352029646 187 187 186 0.31 62 0 63 0 64 0 
1619 -0.6187051119637913 0.4607195902802231 -0.010157591260658627 126 135 146 0.54 62 0 63 0 64 0 
1620 -0.09399828509548813 0.35998879375597953 0.009829115992888715 125 123 125 1.05 62 0 63 0 64 0 65 0 67 0 
1621 0.7264061420489625 0.23036679453575265 0.005562804503288499 167 163 161 0.55 62 0 63 0 64 0 65 0 
1622 0.7934119714208596 0.21343845202253947 0.013482305467475308 145 140 134 0.52 62 0 63 0 64 0 65 0 67 0 
1623 0.9101507335068937 0.20156471178091434 -0.0037696535351186 132 129 122 1.46 62 0 64 0 65 0 67 0 
1624 -0.48430087142504347 0.4237868396950704 -0.008696431085955192 156 153 154 0.34 62 0 63 0 64 0 
1625 0.6597432805263692 0.23065251350496435 0.009972481908477882 137 120 112 0.54 62 0 63 0 64 0 65 0 
1626 0.8886574113728289 0.19414352357114467 0.013401434850920602 161 164 165 1.31 62 0 63 0 64 0 65 0 67 0 
1627 0.4498498207001256 0.2614774822075641 0.004813539420396529 152 151 153 0.44 62 0 63 0 65 0 
1628 0.8648966688094173 0.19409528020454364 0.012109682922137877 127 124 126 0.9 62 0 63 0 64 0 65 0 67 0 
1629 -1.4149334689839654 0.5861327993529384 -0.01414958132563493 171 176 176 0.45 62 0 63 0 64 0 65 0 
1630 -0.406848260192492 0.4003116271340202 -0.0021731892731318148 126 118 123 0.67 62 0 63 0 64 0 
1631 -0.22135917285964823 0.3681557938458913 -0.0009348135180571315 144 132 132 0.89 62 0 63 0 65 0 67 0 
1632 0.16253760361206449 0.29888825829985327 0.0018633998330868096 74 84 102 0.08 62 0 63 0 67 0 
1633 0.8001328248821158 0.1955260801734749 0.00923313555080374 166 167 169 1.28 62 0 63 0 64 0 65 0 
1634 0.9078418169674853 0.17852288474784977 0.013796882108598085 166 163 163 0.45 62 0 63 0 67 0 
1635 0.8404489876221397 0.18148998665281196 0.01444198512750483 170 168 168 1.1 62 0 64 0 65 0 
1636 0.7348870409982826 0.19767372471026184 0.010799318867803498 151 145 144 0.67 62 0 63 0 64 0 65 0 
1637 0.04821628848444548 0.2948585110458181 0.01306424693581909 127 114 114 0.52 62 0 64 0 65 0 67 0 
1638 0.7111473921250466 0.19800776690443872 0.006793049065637824 81 80 88 0.52 62 0 63 0 64 0 65 0 67 0 
1639 0.9236805790126554 0.16312145783552928 0.010791538578759141 141 133 124 0.69 62 0 63 0 64 0 65 0 67 0 
1640 0.8899893450888907 0.16242965777364887 0.01596841043986652 138 128 123 3.1 62 0 64 0 65 0 67 0 
1641 0.06416074879656808 0.29302395186006175 -0.007978951234917764 155 149 151 0.33 62 0 63 0 64 0 65 0 
1642 0.8331268074702785 0.16805126512884289 0.007431785447986616 138 137 135 0.62 62 0 63 0 64 0 65 0 
1643 -0.290025208907579 0.33317188970779005 0.014347571616846855 146 130 130 0.74 62 0 63 0 64 0 
1644 0.24749936410511308 0.2499614473524457 0.014428258542117378 169 170 169 1.28 62 0 63 0 65 0 
1645 0.7589863206120915 0.1827580984741109 -0.009735607678839964 89 91 103 0.52 62 0 63 0 64 0 
1646 -0.6978898298456907 0.4065157116321508 -0.003495094681198463 153 146 148 1.26 62 0 64 0 67 0 
1647 0.8133087475703829 0.16750967558402124 0.008532996512420787 136 133 135 1.71 62 0 64 0 65 0 67 0 
1648 0.7965998877671527 0.1659569600856426 0.011610209970405627 161 159 158 0.52 62 0 64 0 65 0 67 0 
1649 0.39794535848343804 0.2251415400778412 0.001082861463456597 144 142 144 0.38 62 0 64 0 65 0 
1650 0.6924807472367327 0.17961150930143904 0.009322803597868745 96 85 87 0.14 62 0 63 0 64 0 67 0 
1651 0.895793025032283 0.14505701610964689 0.022240806393779566 154 152 149 1.02 62 0 63 0 64 0 65 0 67 0 
1652 0.8735458492952493 0.14774381145790522 0.01910839197840608 138 134 134 0.29 62 0 63 0 64 0 
1653 0.8408641646511061 0.1571911830307799 -4.7045016500879555e-05 133 131 130 1.48 62 0 63 0 64 0 65 0 67 0 
1654 0.9156669452233543 0.13904926530832745 0.01462785760301788 107 105 100 0.67 62 0 63 0 65 0 
1655 0.6934174027208151 0.16801333799175838 0.010806078420334098 166 163 160 0.28 62 0 63 0 64 0 65 0 67 0 
1656 0.5395327290903085 0.1864949101936641 0.014338747466807078 171 164 157 0.21 62 0 63 0 64 0 
1657 0.8818029988862703 0.13622053153285946 0.014651503041758218 129 125 124 0.31 62 0 64 0 65 0 
1658 0.6535444642161803 0.1705096627186063 0.007727512524222213 154 149 149 0.8 62 0 63 0 64 0 65 0 
1659 0.7760571038012984 0.15036309389286623 0.01612915646772528 141 137 133 0.57 62 0 63 0 64 0 65 0 67 0 
1660 0.26633708588348726 0.2257527836739311 6.964595297698217e-05 157 150 144 0.75 62 0 63 0 64 0 65 0 
1661 0.8573080219580889 0.13920019707118275 0.00800558533758533 135 125 123 0.7 62 0 63 0 64 0 65 0 67 0 
1662 -0.3698267801021543 0.3139297017708324 -0.0021747583615223665 158 159 161 0.32 62 0 63 0 64 0 
1663 0.596262530547798 0.16972088001861468 0.006596846160645153 116 116 122 0.66 62 0 64 0 65 0 67 0 
1664 0.9161335252433749 0.12081908879345199 0.008166044376611836 127 125 119 1.37 62 0 63 0 64 0 65 0 
1665 -0.8088172286189529 0.38420847398869057 -0.01880217121099159 140 141 149 0.41 62 0 63 0 65 0 
1666 0.6745198487380857 0.15815019664637936 -0.001631544396565987 96 95 100 1.0 62 0 64 0 65 0 67 0 
1667 0.8979925920500524 0.11880956299003248 0.011690797668983732 91 85 93 0.25 62 0 63 0 64 0 67 0 
1668 0.8789843749905937 0.1229548077138462 0.002377673501558375 103 109 115 1.0 62 0 63 0 64 0 65 0 67 0 
1669 -0.034561340397337936 0.2485481909508907 -0.0033929587986465393 128 121 123 0.21 62 0 63 0 64 0 65 0 
1670 -0.2627475787069202 0.27752060053820476 -0.003353119790368675 97 94 108 0.47 62 0 63 0 64 0 65 0 
1671 0.821899261791649 0.1192596053593366 0.008424138012058435 130 120 117 0.42 62 0 65 0 67 0 
1672 0.8579617360862177 0.11136394077722717 0.010572490158259118 95 88 94 0.58 62 0 63 0 64 0 65 0 67 0 
1673 0.27170304990355953 0.19061940391028248 0.0081359186036285 117 115 117 0.32 62 0 63 0 64 0 
1674 0.8129715089390135 0.11507045558578904 0.0005176387874894495 163 161 161 1.06 62 0 63 0 64 0 
1675 -0.5642373169087542 0.3136464063767708 -0.014731996765860345 107 102 112 0.56 62 0 63 0 64 0 65 0 
1676 0.07648406660429108 0.2203025436810831 -0.01895718955697001 165 158 155 0.58 62 0 63 0 64 0 
1677 0.5769864129640705 0.141169306604215 0.008837786101377088 119 116 120 0.34 62 0 63 0 65 0 
1678 0.6811431704841195 0.12745474663360085 0.010597954249599972 147 140 138 0.38 62 0 63 0 67 0 
1679 0.6571096767873641 0.12669058180484383 0.013015582607031728 132 122 119 1.41 62 0 64 0 65 0 67 0 
1680 0.7755735489193283 0.11108568962363302 0.010973128149877276 153 148 147 0.45 62 0 63 0 64 0 65 0 67 0 
1681 0.9041458106769016 0.0959980156556941 0.002964225929625419 148 144 141 1.16 62 0 63 0 65 0 67 0 
1682 0.6170798914054103 0.132392955025878 0.006121011816236033 180 181 178 0.81 62 0 63 0 65 0 
1683 0.8407033298009312 0.09752477967535228 0.010608793264911043 142 130 128 0.4 62 0 63 0 64 0 65 0 67 0 
1684 0.8704287951899754 0.09210865157917586 0.01887102715486244 143 134 133 2.34 62 0 63 0 65 0 
1685 0.12737762128995933 0.19732866251326336 -0.007501781979791344 146 136 133 0.61 62 0 63 0 64 0 65 0 67 0 
1686 0.2523236623825049 0.1760982804116094 -0.0021975134758986936 154 153 153 0.64 62 0 64 0 65 0 
1687 0.6900173161870939 0.11246367465556278 0.007731791234775187 167 163 162 0.75 62 0 63 0 64 0 65 0 
1688 0.8193096161807041 0.09254870346304589 0.009473956812674489 106 107 111 0.51 62 0 63 0 64 0 65 0 67 0 
1689 0.7415774411020923 0.09386967596843343 0.009662432374657026 106 95 96 0.43 62 0 64 0 67 0 
1690 0.8551597916335716 0.0782210980322059 0.012344878176256735 139 142 148 1.38 62 0 63 0 64 0 65 0 
1691 0.8816656416278756 0.07682205429518685 0.008324827028318715 93 89 100 0.54 62 0 65 0 67 0 
1692 -0.17730551011212048 0.21867756102951114 -0.003644304102519591 153 149 146 1.69 62 0 63 0 64 0 
1693 0.5879977784088968 0.11270958425802896 0.0073177526011085625 160 151 154 1.68 62 0 63 0 65 0 
1694 0.835535512015471 0.07752690949132307 0.017061341777903083 152 147 147 1.88 62 0 63 0 64 0 65 0 
1695 0.5160721351691331 0.11486257872039785 0.01160126009807616 175 175 173 0.53 62 0 65 0 67 0 
1696 -1.1444952072285006 0.3537082559570189 -0.023748275583550083 88 88 99 0.34 62 0 63 0 64 0 
1697 0.09025936294629033 0.17077982013474285 -0.0004345098077223053 120 102 102 1.37 62 0 63 0 64 0 65 0 
1698 -0.8840777789018223 0.31029998936829145 -0.01670554054232465 147 142 140 1.0 62 0 63 0 64 0 65 0 67 0 
1699 0.4510935764983539 0.11840658382054059 0.00914010592558201 159 155 159 0.55 62 0 63 0 64 0 65 0 
1700 0.59205912920595 0.10156901337759994 0.0047190592131249876 147 141 141 1.71 62 0 65 0 67 0 
1701 -1.4278031502144466 0.37930280011456 -0.018603239561321594 128 125 124 0.48 62 0 63 0 64 0 67 0 
1702 -0.504333187273035 0.24161692270763307 -0.02356670227013713 137 133 136 0.33 62 0 63 0 67 0 
1703 0.49592863993434544 0.09488561180081423 0.023251624375230096 119 106 109 0.5 62 0 64 0 65 0 
1704 0.7688727757728813 0.06703449187594268 0.007901804574820037 106 99 101 0.59 62 0 64 0 65 0 67 0 
1705 0.4807494015002245 0.10107207790074424 0.004816979960184042 118 105 112 2.14 62 0 63 0 65 0 
1706 0.8480197303691539 0.053596167451679055 0.009380877966676637 158 155 153 0.3 62 0 65 0 67 0 
1707 -0.8047536247672937 0.27415608034242905 -0.008795730705493332 127 117 119 0.35 62 0 63 0 64 0 65 0 
1708 0.6893589718161108 0.06995403193256533 0.011775154863585602 139 132 131 0.81 62 0 63 0 64 0 65 0 
1709 0.8266925618768248 0.05208661379555196 0.010253448187429237 132 127 126 0.29 62 0 63 0 65 0 
1710 0.21982709448796944 0.12671013048501645 -0.003216043436753191 90 86 89 0.38 62 0 63 0 64 0 65 0 
1711 0.3580554128162703 0.1073255261813873 0.0015318418994088034 136 132 131 0.3 62 0 64 0 65 0 
1712 -0.6479089815638899 0.23795830289837722 0.00225334700803681 155 142 141 0.44 62 0 63 0 65 0 
1713 0.3769958732833545 0.10271197636605373 0.0019257430988888213 104 104 103 1.24 62 0 64 0 67 0 
1714 0.18111406512355255 0.1173700888529921 0.01843432099036102 164 156 154 2.43 62 0 63 0 65 0 
1715 0.30813174433618595 0.10647980828406639 0.00144930885316219 119 112 106 0.43 62 0 63 0 64 0 67 0 
1716 0.44701498303378573 0.09081392693482887 0.002797929760002038 131 120 119 0.36 62 0 63 0 64 0 65 0 
1717 -1.5167428704156056 0.36136264829046755 -0.04193067513581883 158 155 154 0.57 62 0 63 0 64 0 
1718 0.1482152183443084 0.12591040796825048 -0.0006962483718462309 171 163 162 1.03 62 0 63 0 64 0 
1719 0.841738648594083 0.03647578151852465 0.007073819652848368 96 92 95 0.38 62 0 65 0 67 0 
1720 0.5982493493661991 -0.7113824691959785 0.350983715070025 49 44 47 0.67 62 0 63 0 64 0 
1721 0.6416225721640274 0.056563290949081524 0.006761465366665886 182 181 180 0.36 62 0 63 0 64 0 
1722 0.30762444638610353 0.09710182436372117 -0.005288565189386807 140 138 132 0.27 62 0 63 0 64 0 
1723 0.7886656752639998 0.036433084838442764 0.004308098189274467 130 132 129 0.44 62 0 63 0 67 0 
1724 0.19926243523831366 0.10534873600199868 0.005000689607145947 132 120 121 0.59 62 0 64 0 65 0 
1725 0.39358840906054726 0.07559937475123485 0.0029447296953521995 138 134 131 0.27 62 0 63 0 65 0 
1726 0.3522559450916656 0.07866923386716035 0.0035450473424243345 81 77 89 0.41 62 0 63 0 64 0 65 0 67 0 
1727 0.6909927377549685 0.03793069306108626 0.009536562723084119 103 87 91 0.79 62 0 63 0 64 0 65 0 
1728 0.21572844444232464 0.09407260946478024 -0.0022927965731991407 105 105 109 1.4 62 0 64 0 65 0 
1729 0.3361277122056716 0.07785782569393579 0.0024335993182480475 131 130 125 0.35 62 0 63 0 65 0 
1730 0.3243794328342484 0.07910509621147704 -0.0025441090097624297 91 88 92 0.82 62 0 63 0 64 0 67 0 
1731 -0.1774570473603816 0.13254769877086126 -0.0039103633324311105 138 138 137 0.31 62 0 63 0 64 0 65 0 67 0 
1732 0.2427375853771332 0.07936863253441995 -0.00044368237364222907 107 103 105 0.38 62 0 63 0 64 0 65 0 67 0 
1733 0.47361560050945384 0.04140562967390482 0.020121394265389947 161 154 154 0.23 62 0 64 0 65 0 
1734 0.194611952976546 0.07977003329615118 -0.007551501994339516 74 71 81 0.5 62 0 64 0 67 0 
1735 0.4386556272134905 0.042807031396245365 0.017103134724322677 161 154 146 1.54 62 0 63 0 64 0 
1736 -0.9635204711076409 0.2189367937350491 -0.012871870485867687 92 83 90 0.57 62 0 63 0 64 0 65 0 67 0 
1737 -0.33166031371352167 0.13518281078618483 -0.0012083260141024788 181 177 175 0.43 62 0 63 0 64 0 65 0 67 0 
1738 0.4119459191258035 0.050907079475929096 -0.012010884616784567 129 122 120 0.89 62 0 64 0 65 0 
1739 0.3100277146497079 0.05088421302557111 0.002768326586303438 109 104 104 0.7 62 0 63 0 64 0 65 0 
1740 0.6172724255885442 0.01742386532917406 -0.0029483415538167357 145 138 134 1.39 62 0 64 0 65 0 
1741 0.2873797616779916 0.05214956785472924 -0.002781173653018776 147 144 140 0.36 62 0 63 0 64 0 65 0 
1742 0.15846990529157257 0.06572778659415296 -0.0014440025973347925 144 139 138 0.6 62 0 63 0 64 0 65 0 
1743 0.4229531497364729 0.03252544032087906 0.0009653136928025052 129 111 112 0.5 62 0 64 0 67 0 
1744 -1.173712858115142 0.2255061962826302 -0.021656639257503274 135 117 109 0.37 62 0 63 0 64 0 65 0 
1745 -0.10701966343932556 0.0906577363336481 -0.0008131636927219965 166 162 156 0.17 62 0 63 0 64 0 65 0 
1746 0.051737271122180406 0.07045665350185165 0.0012508966101849595 164 155 154 1.85 62 0 63 0 67 0 
1747 0.3560389102384287 0.03651193024617977 -0.0032787926743587104 115 102 102 1.89 62 0 63 0 64 0 65 0 
1748 -1.031004790520744 0.19805288540597316 -0.017000631886777473 136 124 126 0.24 62 0 63 0 64 0 
1749 -0.2117063901800036 0.09605419420363354 -0.0035058680972210876 157 155 160 0.17 62 0 64 0 65 0 
1750 0.24225912571109687 0.0420484999218792 -0.006438491061239615 129 117 113 0.25 62 0 64 0 65 0 
1751 0.6603852637523715 -0.006146563375228897 0.011119211120474981 120 112 113 0.41 62 0 63 0 65 0 
1752 0.09246061281817519 0.055662797533281294 -0.0003604649733166543 111 99 101 0.31 62 0 63 0 65 0 
1753 0.13191587557081896 0.052692524912727745 -0.0017798912730668803 126 123 118 0.72 62 0 63 0 67 0 
1754 -0.45361527755841236 -0.6946430599930752 0.5758686990225643 159 157 157 0.53 62 0 63 0 64 0 
1755 0.5914915214680063 -0.70378284043387 0.2856049871182853 96 91 94 0.48 62 0 63 0 64 0 
1756 -0.3064381545935648 0.09403567020953912 -0.003648313446741547 160 174 176 0.49 62 0 64 0 65 0 
1757 0.028857693256521988 0.05821995023994586 -0.015331564358819216 162 154 151 1.63 62 0 63 0 64 0 
1758 0.34092209050634326 0.021876553063887194 -0.0009291961312352104 138 125 116 0.11 62 0 63 0 65 0 
1759 0.15793876844896437 0.03930902696200744 0.0005020545521166042 123 105 97 1.16 62 0 63 0 64 0 65 0 
1760 -0.1438876506188076 0.07040117315493394 -0.002189160390620337 181 185 190 0.51 62 0 63 0 64 0 65 0 67 0 
1761 -1.323366696454396 0.20990766103639574 -0.024244186861126726 108 91 91 0.44 62 0 63 0 64 0 65 0 67 0 
1762 0.062419737639317074 0.04541595533785742 -0.006531219109337849 127 120 119 0.4 62 0 63 0 64 0 65 0 
1763 0.6027396847794417 -0.009895866286832089 -0.013055285411058382 153 146 147 0.55 62 0 63 0 64 0 65 0 
1764 0.10553781333191359 0.0382122324264077 -0.0005459505877574156 102 94 92 0.54 62 0 63 0 64 0 65 0 67 0 
1765 -1.2340476132251283 0.19009234693012395 -0.022469323056411916 124 127 132 0.38 62 0 63 0 64 0 65 0 
1766 -0.24113690570054813 0.07014365036123688 0.0028217619732162635 181 191 198 0.09 62 0 63 0 65 0 
1767 0.15470210737913082 0.027589070589871645 -0.0007287231888402079 124 107 101 0.27 62 0 63 0 64 0 65 0 
1768 0.1927377639469714 0.021345507519308082 -0.001209198356023622 147 124 120 0.4 62 0 63 0 64 0 
1769 0.46229287497304705 -0.009159122204442705 0.0009417159065501224 118 105 99 0.72 62 0 63 0 64 0 65 0 
1770 0.6647644297080233 -0.029971074244233287 -8.89544000715059e-05 156 154 157 0.37 62 0 63 0 64 0 65 0 
1771 0.6842573339633926 -0.03331439721376722 0.007441572750577219 98 86 87 1.69 62 0 63 0 64 0 
1772 0.042965088554106634 0.032893977251636064 0.0034248033306303327 146 138 133 0.36 62 0 63 0 67 0 
1773 0.10642947005482672 0.025474696520940754 0.0007258883488958645 117 101 97 0.55 62 0 63 0 65 0 67 0 
1774 0.626367259326867 -0.027343920134974498 -0.0019498964128903395 140 130 131 1.66 62 0 63 0 64 0 65 0 
1775 0.5734427771243973 -0.0248719023813746 0.0006555175669582525 152 149 150 0.68 62 0 63 0 65 0 
1776 0.23680326502750293 0.009665777558899413 -0.008414261018605318 112 100 95 0.56 62 0 63 0 64 0 65 0 67 0 
1777 0.5910485456283743 -0.029398080359384127 0.0033652869626259463 114 117 123 0.31 62 0 63 0 64 0 65 0 
1778 0.38605858796823433 -0.009952930701188467 0.002838855762798964 113 106 107 0.68 62 0 63 0 64 0 65 0 
1779 0.17350599894207197 0.009011076714251887 -0.0032696449891043144 136 132 127 0.35 62 0 63 0 64 0 65 0 67 0 
1780 -1.2709149381808449 0.17235237362260097 -0.024413307951647534 97 91 98 0.58 62 0 63 0 64 0 65 0 67 0 
1781 0.25901947687730287 -0.009576479981440122 0.0025054642319235487 122 106 104 0.51 62 0 63 0 64 0 
1782 0.3896973407828628 -0.0184133252413049 -0.013503652796181154 125 113 110 0.55 62 0 63 0 64 0 67 0 
1783 0.4091925449198426 -0.021830059133864155 -0.0026680595374233285 156 150 145 0.3 62 0 63 0 64 0 65 0 
1784 0.49549106347607186 -0.712413208028778 0.1620743378899212 110 107 115 1.34 62 0 63 0 64 0 
1785 -0.45584835753810793 -0.6967057094588829 0.46734242334485043 58 52 59 0.54 62 0 63 0 64 0 65 0 
1786 -0.47525389780306 -0.6950132259007165 0.4958836239121076 85 75 80 0.59 62 0 63 0 67 0 
1787 0.3038896737749983 -0.018991883011882593 -0.002559517481060869 145 144 141 0.3 62 0 63 0 64 0 65 0 
1788 -0.32724526962790434 0.04729049846459815 -0.022907661688626346 189 195 202 0.58 62 0 63 0 65 0 
1789 0.25793989938955986 -0.020189329246703858 -0.00014132189053439603 145 139 133 0.46 62 0 63 0 64 0 67 0 
1790 0.5954181115046369 -0.051841129299924515 -0.008086947448537884 127 122 118 1.06 62 0 63 0 64 0 
1791 0.20992750843924113 -0.01842414605956888 -0.004647593844485209 132 128 128 0.42 62 0 63 0 64 0 65 0 
1792 -0.27332901694338285 -0.6958007471227721 0.34731320589911063 56 46 50 0.61 62 0 63 0 64 0 65 0 67 0 
1793 0.5520341047125099 -0.7027552414388705 0.1818132006717359 105 107 114 0.31 62 0 63 0 64 0 
1794 0.28873997329905854 -0.030091339992877608 0.002487520829905776 116 104 102 0.44 62 0 63 0 64 0 
1795 0.29972465751373734 -0.028307527727626458 -0.01012018971803852 78 71 78 0.71 62 0 64 0 65 0 
1796 0.07047902522117477 -0.015338196546253013 0.002386092047466981 111 101 93 0.3 62 0 63 0 64 0 65 0 
1797 0.41305833531566516 -0.04844041754800993 0.00030737228694444063 68 68 71 0.32 62 0 63 0 64 0 65 0 67 0 
1798 0.4295112502582812 -0.051095171352781465 0.003604868669809136 57 50 52 0.32 62 0 63 0 64 0 65 0 
1799 0.6697010933673917 -0.07359449870705903 0.00401725778255968 123 111 112 0.49 62 0 63 0 64 0 65 0 
1800 -0.15788860129967763 0.004857971455571264 -0.00023273514010369034 99 88 82 0.36 62 0 63 0 64 0 65 0 
1801 0.2068206466519491 -0.02966988151371408 -0.007380542901041842 101 104 113 0.72 62 0 63 0 64 0 65 0 
1802 0.3569518828373066 -0.045607979348159855 -0.009495647485393777 67 58 59 0.23 62 0 63 0 64 0 65 0 
1803 -0.2521664843886422 0.013849691868973613 -0.026877639398636965 78 74 80 0.96 62 0 63 0 64 0 65 0 
1804 -0.43387868412154634 -0.6948387189921086 0.36367093362777436 99 93 104 0.7 62 0 63 0 64 0 67 0 
1805 -0.2737121998385099 0.006951872212878574 0.009615329532859151 70 72 86 2.34 62 0 64 0 65 0 
1806 -0.259806085464215 0.00928285526190653 -0.005532596509398857 71 63 67 0.43 62 0 63 0 65 0 
1807 0.5248719283312173 -0.0682073807996304 0.005746200427153791 156 152 157 0.75 62 0 63 0 64 0 65 0 
1808 -0.33208997087425685 0.021760547890444792 -0.04896630503879362 64 54 68 0.36 62 0 63 0 64 0 
1809 -0.053846267386521984 -0.017952184032294927 0.016234884654562354 129 118 124 0.53 62 0 63 0 64 0 
1810 0.08656529685510606 -0.026138296646482373 -0.014604740699938334 74 75 83 0.82 62 0 63 0 64 0 65 0 
1811 0.09626876993834443 -0.02449135190153723 -0.027836583052350594 90 91 102 0.77 62 0 63 0 64 0 
1812 0.48199476827463106 -0.06792547721303616 0.007003037772652876 142 134 128 0.69 62 0 63 0 65 0 
1813 0.5022366378397407 -0.0660464404345551 -0.004872008762269564 134 125 128 0.58 62 0 63 0 64 0 65 0 67 0 
1814 0.23854125555760697 -0.040888208997027886 -0.022637648382387354 47 42 46 1.49 62 0 63 0 64 0 65 0 
1815 -0.0995498341474077 -0.014733872914977297 -0.0032404219889969887 133 129 133 0.5 62 0 63 0 65 0 
1816 0.21309907095498826 -0.04127334558117657 -0.012572594583094565 71 68 72 0.65 62 0 64 0 67 0 
1817 -0.16387358908501803 -0.705099038462718 0.05246159680343676 120 130 133 3.74 62 0 64 0 65 0 
1818 -0.7296891289470959 -0.6859691817705033 0.3634335216226232 68 59 70 0.64 62 0 63 0 64 0 
1819 -0.7492257955268108 -0.6890160239583949 0.3897289692705843 71 67 77 0.57 62 0 63 0 64 0 
1820 -0.029626317918189815 -0.6992861819767957 0.1322945336810999 124 146 169 1.27 62 0 63 0 64 0 65 0 
1821 -0.0015318634073477888 -0.02802661195691536 0.00248633992629399 152 148 146 1.27 62 0 63 0 67 0 
1822 0.18651065381688903 -0.04351469159934157 -0.00790228911394908 37 32 38 0.62 62 0 63 0 64 0 65 0 67 0 
1823 0.6464903465673928 -0.08680066080470461 0.001026157227356439 106 102 103 0.31 62 0 63 0 64 0 65 0 
1824 -0.7607706553737937 0.04826915499249351 -0.020028266217612556 147 133 123 0.57 62 0 63 0 64 0 65 0 
1825 0.15631703875552883 -0.042765188202225024 -0.006444990124173433 69 67 70 0.23 62 0 63 0 64 0 65 0 
1826 0.49739257015358573 -0.08077766279906334 0.006493348905422636 137 134 135 0.5 62 0 63 0 65 0 
1827 0.5105386931913021 -0.08532483871991264 0.01386878782853751 151 144 141 0.48 62 0 63 0 64 0 65 0 
1828 -0.1961909114668563 -0.017894587210782187 -0.02005618620297467 159 160 163 0.6 62 0 63 0 65 0 
1829 -0.16237251955101284 -0.022985294657849653 -0.0077920798557289395 118 111 113 0.76 62 0 64 0 65 0 67 0 
1830 0.07702829432530944 -0.044277782599715876 -0.002225363308871575 34 32 35 0.49 62 0 64 0 65 0 67 0 
1831 0.45361300056984577 -0.07877231199301532 -0.003948755430765116 55 40 43 0.39 62 0 63 0 64 0 65 0 
1832 0.4031917961843534 -0.0822531360772793 0.008469252213105571 37 23 27 1.18 62 0 63 0 64 0 
1833 -0.781797011947241 0.02985391991926123 -0.013332127568604468 105 90 91 0.34 62 0 63 0 64 0 65 0 
1834 0.38003674980319513 -0.0778147829907499 -0.019334608464353975 45 34 36 2.27 62 0 63 0 64 0 65 0 
1835 0.3626014460048288 -0.6947087517165439 -0.025935536895618894 85 95 97 0.36 62 0 63 0 64 0 65 0 
1836 -0.023424124852852057 -0.6923610886810863 0.0794664080975549 65 72 73 0.37 62 0 64 0 65 0 
1837 0.5757216563480567 -0.09787098114169879 0.002651200249879526 135 123 124 0.24 62 0 64 0 65 0 
1838 0.5339551468441752 -0.09563744649579031 -0.0026960827233757367 152 144 147 1.02 62 0 64 0 65 0 
1839 0.026481735772429627 -0.05581693991121095 0.02212718115784784 197 207 203 0.42 62 0 63 0 64 0 
1840 0.4935807979197231 -0.09278319062526558 -0.006310363598625246 132 125 117 0.32 62 0 63 0 64 0 
1841 0.04791363496091294 -0.05765227575288617 0.004556233605279125 147 141 140 0.4 62 0 63 0 64 0 65 0 67 0 
1842 0.2938652896004821 -0.07485510985343324 -0.02737199981974281 43 31 33 1.37 62 0 63 0 64 0 65 0 67 0 
1843 0.31496501535828103 -0.07668525433875284 -0.02402630317319998 41 27 29 1.21 62 0 64 0 65 0 67 0 
1844 0.6433265050388035 -0.10950472629134439 -0.0038686590832130996 132 117 118 0.64 62 0 63 0 64 0 65 0 
1845 0.18232271748730722 -0.07507419077164035 -0.01392979102071834 39 27 30 2.31 62 0 64 0 65 0 67 0 
1846 0.23089741831440613 -0.08068075843820771 -0.0014531661631393966 36 25 28 2.23 62 0 63 0 64 0 65 0 67 0 
1847 0.628172840139267 -0.6732231456071986 0.012916943029758654 67 58 53 0.39 62 0 63 0 65 0 
1848 -0.02525378373019682 -0.6885991247212773 0.02448120193843706 62 72 71 0.32 62 0 63 0 64 0 
1849 -1.2031609568829436 0.04806914779200111 -0.0210801804336318 96 102 110 0.1 62 0 63 0 64 0 
1850 0.7440879617888794 -0.6698196099397054 -0.003302494857721827 19 16 16 0.38 62 0 63 0 64 0 
1851 -0.44581230308627656 -0.6862573720944827 0.10731002084564278 104 110 117 0.37 62 0 63 0 64 0 65 0 
1852 0.14517428970999235 -0.07537313840881349 -0.01053387383437121 43 34 40 1.85 62 0 63 0 64 0 
1853 0.07435287523119793 -0.07273412287528297 -0.0011974916797630186 70 54 56 0.53 62 0 63 0 64 0 65 0 
1854 0.45420112416036407 -0.10668643693741009 -0.0015500294603671971 66 52 53 0.23 62 0 64 0 65 0 67 0 
1855 -0.17910243876906584 -0.052907838243215766 -0.006369006506548036 137 131 134 0.42 62 0 64 0 65 0 
1856 -0.09421641795671487 -0.06727678122631753 -0.005624526223245052 156 151 152 0.76 62 0 63 0 64 0 65 0 
1857 0.01940463052134478 -0.0783211133878049 -0.002528231201983866 100 98 98 1.1 62 0 63 0 64 0 65 0 67 0 
1858 0.5668135641172809 -0.12539280347935683 0.0016847567868762958 150 143 143 0.61 62 0 63 0 64 0 65 0 
1859 0.3445722214198863 -0.10447193867938687 -0.037558579047290985 37 24 27 2.58 62 0 63 0 64 0 65 0 
