# 3D point list with one line of data per point:
#   POINT3D_ID, X, Y, Z, R, G, B, ERROR, TRACK[] as (IMAGE_ID, POINT2D_IDX)
# Number of points: 466, mean track length: 4.25
779 0.8656560361728245 -0.4246503453875244 -0.10339996242787275 60 40 43 0.31 50 0 52 0 53 0 54 0 63 0 
780 1.9785419713253711 -0.4917179288155963 -0.23802874011777497 49 40 40 0.55 50 0 51 0 52 0 
781 -0.5912889286150858 -0.3422880328284079 0.024891080329962456 115 105 102 0.79 50 0 51 0 52 0 53 0 54 0 
782 -0.5649268336962026 -0.343806965292381 0.020893064451361854 75 48 44 0.57 50 0 51 0 52 0 53 0 54 0 
783 -0.6625170443117747 -0.3421138167088269 0.028975292472793956 116 106 106 0.55 50 0 51 0 52 0 54 0 
784 -0.6449635418573028 -0.3434311494483793 0.030155478621963328 124 111 108 0.82 50 0 51 0 52 0 53 0 54 0 
785 1.4701463194356732 -0.47729677705869594 -0.1573940329925818 75 66 66 0.26 50 0 51 0 52 0 54 0 
786 -1.2867998169226862 0.5333232096278859 -5.069757765469991 157 165 168 4.22 50 0 51 0 52 0 
787 -0.6877330458135003 -0.34471909503427545 0.04735947749011449 104 89 86 0.3 50 0 51 0 52 0 53 0 
788 -1.6999883690701967 1.1036611572442423 -8.45650406780898 144 158 163 0.36 50 0 51 0 52 0 
789 -0.7822281170728271 -0.338885312775731 0.03729203060684272 134 135 134 0.31 50 0 51 0 52 0 53 0 54 0 
790 0.3220323597463837 -0.40307088118288986 -0.05752416174679831 98 85 83 0.88 50 0 51 0 52 0 54 0 63 0 64 0 
791 0.40575135546374125 -0.4088609102875986 -0.06398159185265162 125 122 119 0.41 50 0 51 0 52 0 53 0 54 0 63 0 64 0 
792 1.1812238819013152 -0.4595508209958087 -0.15663282102118425 58 41 48 0.62 50 0 51 0 52 0 53 0 54 0 63 0 64 0 
793 0.28701577018628716 -0.4041647407427523 -0.06600636891495393 62 59 63 0.6 50 0 51 0 52 0 53 0 54 0 
794 1.0611665191641593 -0.45784159086254755 -0.140426954901389 56 62 79 0.37 50 0 51 0 52 0 53 0 
795 1.0165129315760737 -0.458908460031111 -0.1433523907707659 60 46 54 0.74 50 0 51 0 52 0 53 0 54 0 63 0 64 0 
796 1.2455505288461624 -0.475620839388626 -0.15180846495582911 55 42 47 0.48 50 0 51 0 52 0 64 0 
797 -0.6220541161246713 -0.3574376458947108 0.026683089722732367 104 96 93 0.54 50 0 51 0 52 0 53 0 54 0 
798 0.8681068658150299 -0.45665005527841396 -0.1089281756732472 73 62 61 0.79 50 0 51 0 52 0 64 0 
799 0.9292448476182746 -0.45780317228006334 -0.13401617910808938 61 45 53 0.27 50 0 51 0 52 0 53 0 54 0 64 0 
800 0.21768277550373905 -0.40922806742517454 -0.06644398034227872 38 25 29 0.45 50 0 51 0 52 0 53 0 63 0 64 0 
801 0.781738865289539 -0.454967930079111 -0.09968542445178552 109 97 93 0.47 50 0 51 0 52 0 53 0 63 0 
802 0.8291884043387925 -0.45690570260260577 -0.10804254084923581 125 119 113 0.91 50 0 51 0 52 0 53 0 54 0 63 0 64 0 
803 -0.7006148753516308 -0.35643713762006607 0.02880405053663404 107 103 104 0.39 50 0 51 0 52 0 53 0 54 0 
804 -0.7644835062959638 -0.3535313179632386 0.029420532988004178 92 85 88 1.12 50 0 51 0 52 0 54 0 
805 -1.6966231669398608 0.9769546960312223 -8.233342373699102 69 68 73 0.49 50 0 51 0 52 0 
806 1.2164461888181894 -0.494081739476339 -0.16150731874291924 37 24 28 0.64 50 0 51 0 52 0 53 0 54 0 63 0 64 0 
807 -0.665758839537314 -0.3676906196782711 0.031086076085318215 128 112 104 0.56 50 0 52 0 53 0 54 0 
808 -0.6249084476706459 -0.36949610395894744 0.02593427032999851 97 85 80 0.67 50 0 52 0 53 0 54 0 
809 0.36640801399275796 -0.4369843213899009 -0.06640308330720956 125 121 121 0.33 50 0 51 0 52 0 53 0 54 0 63 0 
810 -0.6456769015735815 -0.3680655748331789 0.02510473299681215 131 126 120 0.32 50 0 51 0 52 0 53 0 54 0 
811 -0.6011535912372281 -0.3716402137824254 0.018879742454059656 66 59 58 1.41 50 0 51 0 52 0 53 0 
812 1.286412584709495 -0.5102910531380329 -0.1502319247539865 53 46 49 0.14 50 0 52 0 53 0 54 0 
813 1.6316033088502466 -0.5377868780839801 -0.1776252012064794 30 31 32 0.39 50 0 51 0 52 0 53 0 54 0 
814 -0.7074683906854458 -0.36829273290091963 0.027562258031272657 109 103 102 0.5 50 0 51 0 52 0 53 0 54 0 
815 0.2824629686119025 -0.43532331046879075 -0.06067695626662739 70 57 56 0.46 50 0 52 0 54 0 63 0 
816 -0.68278207664185 -0.3689497112305093 0.02473128399837754 120 114 110 0.35 50 0 51 0 52 0 53 0 54 0 
817 0.3207598939620408 -0.4389962470018242 -0.0649980922892246 125 121 122 0.57 50 0 52 0 63 0 
818 1.1789890383153567 -0.5086296288026291 -0.16286639235566036 42 30 32 0.46 50 0 51 0 52 0 53 0 63 0 
819 1.2703966407042029 -0.5120765020435519 -0.18144810329267713 49 39 44 0.77 50 0 51 0 52 0 
820 -0.7391373768647203 -0.36996616568608215 0.029168802161030127 96 86 86 0.58 50 0 52 0 53 0 
821 1.63541568508285 -0.5690737996218732 -0.1010121696108548 57 54 55 0.33 50 0 51 0 52 0 
822 0.39215402736391985 -0.4565038904129373 -0.06901447847595743 88 82 84 0.32 50 0 52 0 53 0 54 0 63 0 64 0 
823 1.0714860797695698 -0.5104340756383725 -0.1572444741962138 52 59 76 0.44 50 0 51 0 52 0 53 0 54 0 
824 -0.6693166221350115 -0.3832604783010015 0.024171500538980206 105 99 91 0.42 50 0 51 0 52 0 53 0 54 0 
825 -0.6304123739396554 -0.3854821268340331 0.02212420281041494 122 118 112 0.25 50 0 51 0 52 0 54 0 
826 0.27971641098199324 -0.4529654417025117 -0.06412071036711664 65 58 64 0.69 50 0 51 0 52 0 54 0 64 0 
827 1.016742795564314 -0.5094647192113708 -0.15132229866791325 39 27 30 0.34 50 0 51 0 52 0 53 0 64 0 
828 -0.7226199793157626 -0.38113024418105285 0.025862584839916103 101 92 89 0.66 50 0 52 0 54 0 
829 -0.7125729566501264 -0.3820458509022923 0.027512504804379834 100 88 87 1.44 50 0 52 0 53 0 54 0 
830 -0.7009248397379386 -0.38332859083138776 0.02655859087460133 80 69 71 0.41 50 0 52 0 53 0 54 0 
831 -0.7504008547828722 -0.38245102993578506 0.031015840068812528 87 83 83 0.42 50 0 51 0 52 0 53 0 54 0 
832 0.10080011829845786 -0.4404873019894351 -0.05900474187625315 67 76 95 0.27 50 0 51 0 52 0 53 0 54 0 63 0 64 0 
833 0.9286140067508339 -0.5082737455136036 -0.1405220785869452 44 30 32 0.41 50 0 51 0 52 0 53 0 54 0 64 0 
834 -0.7843546966740034 -0.38088856732391013 0.03321179679744968 107 105 108 0.34 50 0 51 0 52 0 54 0 
835 -0.5116458524188237 -0.39747824951540467 0.0005420745680786432 39 35 32 0.73 50 0 51 0 52 0 
836 0.21655841773035417 -0.4527030810371312 -0.07360631621912517 61 49 62 0.32 50 0 51 0 52 0 53 0 54 0 63 0 64 0 
837 1.6296106320376946 -0.5751351618722047 -0.18398044153763093 32 33 39 0.32 50 0 51 0 52 0 53 0 
838 -0.5564508097446177 -0.4004150026167681 0.027798561662300658 76 74 72 0.8 50 0 51 0 52 0 53 0 
839 -0.5860542725367157 -0.3975344066587843 0.01426685926996174 83 77 74 0.21 50 0 52 0 53 0 54 0 
840 0.251454289065067 -0.4616012337945407 -0.07552378490490175 30 18 21 0.45 50 0 51 0 52 0 53 0 63 0 64 0 
841 0.8667046335912529 -0.5164845620300362 -0.11882468690820858 67 45 44 0.46 50 0 51 0 52 0 53 0 54 0 64 0 
842 1.2438170807448512 -0.5459044167702123 -0.16555987998390553 66 57 62 0.7 50 0 52 0 53 0 54 0 64 0 
843 -0.708717695655321 -0.38756682275519394 0.00457144558613698 117 109 106 0.58 50 0 51 0 52 0 
844 -0.6064603921915015 -0.3982215454836317 0.017186475593453876 93 89 83 0.44 50 0 51 0 52 0 53 0 54 0 
845 0.1279772805395844 -0.45212206893883006 -0.06699732287069726 56 44 51 0.61 50 0 51 0 52 0 53 0 63 0 64 0 
846 0.2815209809502122 -0.46760425359310237 -0.06792288299811644 80 78 79 0.62 50 0 52 0 53 0 54 0 63 0 
847 0.3140567561488889 -0.46993756020414307 -0.07754330609267601 93 83 78 0.72 50 0 51 0 52 0 53 0 64 0 
848 -0.6511371883074046 -0.39647988482445246 0.024239680544344555 81 77 78 0.42 50 0 51 0 52 0 53 0 54 0 
849 -0.6284123960293762 -0.39931043699827456 0.02047352019024462 107 106 104 0.54 50 0 51 0 52 0 53 0 54 0 
850 1.6998684692178943 -0.597720783733481 -0.18625156939092147 33 34 33 0.43 50 0 51 0 52 0 53 0 54 0 
851 -0.9023063991434388 -0.2405432226083843 -1.0348900772176606 48 55 65 0.31 50 0 51 0 52 0 
852 -0.759659951663274 -0.39066809665811625 0.028362069913817844 106 93 94 0.83 50 0 51 0 52 0 54 0 
853 -0.6699265608614201 -0.39714939822530043 0.022868551877149645 104 101 96 0.66 50 0 51 0 52 0 53 0 54 0 
854 0.7361085971277486 -0.5151980032254089 -0.10752808372257294 100 90 86 0.75 50 0 52 0 53 0 54 0 63 0 64 0 
855 -1.5262890453180544 0.7006530661148888 -7.804989568154108 20 30 36 0.29 50 0 51 0 52 0 
856 -0.7493763297850373 -0.3987468490147831 0.049567988740481184 82 77 79 0.25 50 0 52 0 53 0 
857 -0.7246803406436948 -0.3973236257438801 0.021559254386108506 137 134 134 0.71 50 0 51 0 52 0 
858 -0.7819950560129312 -0.3951332889806396 0.03163680507781108 79 61 60 0.2 50 0 51 0 52 0 54 0 
859 -0.5276815735466716 -0.4110024439341156 -0.01437366928852346 83 85 80 0.37 50 0 52 0 53 0 
860 0.49267070749816894 -0.5030091231209415 -0.08817234902002125 85 80 83 0.67 50 0 51 0 52 0 54 0 64 0 
861 -0.6141156620641981 -0.41396792594915616 0.014359102272408109 107 105 103 0.57 50 0 51 0 52 0 53 0 54 0 
862 -0.5880021420574919 -0.4139796178078991 0.015069397355886194 96 88 84 0.73 50 0 51 0 52 0 53 0 54 0 
863 0.5186626906743854 -0.5091442718328794 -0.08588919915299331 55 51 54 0.62 50 0 51 0 52 0 53 0 54 0 63 0 64 0 
864 1.1181947690576846 -0.5629934091501206 -0.1664814651965314 77 69 74 0.58 50 0 51 0 52 0 53 0 63 0 64 0 
865 -0.6374828048072183 -0.41221234180871885 0.007182822407282741 100 96 94 0.94 50 0 51 0 52 0 53 0 54 0 
866 0.25083431759446023 -0.48716689388376716 -0.07897724773217774 33 20 23 0.47 50 0 51 0 52 0 53 0 54 0 64 0 
867 0.8627763496917502 -0.5458461839920746 -0.12030576329642573 61 47 47 0.34 50 0 51 0 52 0 53 0 54 0 63 0 
868 0.33531498843546276 -0.4992246039839382 -0.07269688846396205 113 109 105 0.42 50 0 51 0 52 0 53 0 63 0 64 0 
869 -0.7435706850007606 -0.41074552910406753 0.024820875023417788 82 77 77 0.53 50 0 52 0 53 0 54 0 
870 -0.7636336784580691 -0.41298143065958914 0.03635986248259204 128 121 122 0.54 50 0 51 0 52 0 53 0 54 0 
871 -0.785988810990311 -0.4127333582715909 0.0435064409351229 140 140 141 0.35 50 0 51 0 52 0 
872 1.4298011111699571 -0.6136822507678058 -0.16895154533240175 46 33 31 0.99 50 0 52 0 53 0 63 0 64 0 
873 -0.6390620925362964 -0.42490764614998083 0.018391308600812506 92 91 90 0.62 50 0 51 0 52 0 54 0 
874 0.5236429987693305 -0.5296613551552384 -0.09075713884171543 100 89 84 0.48 50 0 51 0 52 0 53 0 54 0 63 0 64 0 
875 -0.6169721144999671 -0.42694649411610214 0.014440343829285718 71 66 64 0.46 50 0 51 0 52 0 53 0 54 0 
876 0.4927377686987074 -0.529551260351061 -0.08201864036526252 102 96 93 1.46 50 0 51 0 52 0 63 0 64 0 
877 0.3033452021910113 -0.5137534087329936 -0.0712787398744188 119 108 100 0.42 50 0 51 0 52 0 53 0 54 0 63 0 64 0 
878 0.2797502056653139 -0.514308713713972 -0.06979396669163362 68 56 58 0.53 50 0 52 0 53 0 54 0 63 0 64 0 
879 1.176465586177838 -0.6080905002156322 -0.17639045366354944 61 46 56 0.67 50 0 51 0 52 0 53 0 54 0 63 0 64 0 
880 -1.4248930282396437 0.5352945853541773 -7.984112884281483 31 35 33 1.22 50 0 51 0 52 0 
881 -0.8033256732517242 -0.3949491725897294 -0.2168834780226887 150 156 157 1.81 50 0 51 0 52 0 
882 0.5440069538018706 -0.5481152914440027 -0.09679778340345657 88 65 62 0.43 50 0 51 0 52 0 63 0 64 0 
883 -0.7887522146499861 -0.4261004614984834 0.028085596528293122 137 126 126 0.27 50 0 51 0 52 0 
884 -0.7742761896908674 -0.4267360741508285 0.028874859870490877 142 147 151 0.25 50 0 51 0 52 0 53 0 54 0 
885 -0.5602663903173062 -0.4443268905835677 0.011165508990242268 90 89 89 0.32 50 0 52 0 53 0 
886 0.304132843426314 -0.5283379367177956 -0.07315096545351896 104 94 88 0.34 50 0 51 0 52 0 53 0 54 0 63 0 64 0 
887 1.0889157194218322 -0.6079888674570221 -0.16909669281233364 56 41 48 0.48 50 0 51 0 52 0 53 0 54 0 63 0 64 0 
888 1.3526375103011978 -0.6403301186170756 -0.16717810442763814 54 41 40 0.36 50 0 51 0 52 0 53 0 54 0 
889 -0.6022654656011641 -0.4472460616382033 0.018343566741240824 105 91 89 0.97 50 0 51 0 52 0 53 0 
890 0.7083687168261683 -0.5750086035340368 -0.11413234615669299 75 69 66 1.18 50 0 52 0 53 0 54 0 63 0 
891 1.0144842433038128 -0.6063599344395382 -0.1634863568942111 55 39 46 0.43 50 0 51 0 52 0 53 0 54 0 63 0 64 0 
892 -0.6703943102584311 -0.44284670846623014 0.016429084930600357 95 90 86 0.25 50 0 51 0 52 0 53 0 54 0 
893 -0.6495880722027159 -0.4433430897879817 0.015182807882905935 89 90 88 0.43 50 0 51 0 52 0 53 0 54 0 
894 0.3795658591437214 -0.5438144167750508 -0.08216556898838379 109 98 93 0.99 50 0 51 0 52 0 53 0 63 0 64 0 
895 1.277471047420248 -0.6394096612896748 -0.16582167595832953 64 54 56 0.54 50 0 51 0 52 0 53 0 54 0 63 0 64 0 
896 1.467588093099822 -0.6914669913575343 0.08600709705761456 87 86 85 0.29 50 0 52 0 54 0 
897 -0.7129033938894449 -0.4432243446663145 0.019696319649256777 129 125 121 0.4 50 0 51 0 52 0 53 0 54 0 
898 -0.6887692234653819 -0.4434412301324353 0.011758864961172177 116 112 111 0.12 50 0 51 0 52 0 
899 0.3455275934907079 -0.544088736408251 -0.07773390714406814 136 118 115 1.57 50 0 51 0 52 0 53 0 54 0 63 0 
900 -0.7283237818944459 -0.4423740112887568 0.02098964622056254 107 103 104 0.57 50 0 51 0 52 0 53 0 54 0 
901 0.2785564930256977 -0.5405983080286422 -0.07621127694037311 56 51 54 0.74 50 0 51 0 52 0 53 0 54 0 63 0 
902 1.3941998140509053 -0.6863569513012728 0.0316882229283566 98 102 106 0.18 50 0 52 0 53 0 
903 -0.7703702838734929 -0.4416459537807721 0.02809373025363482 105 104 105 0.39 50 0 51 0 52 0 53 0 54 0 
904 -0.5598715742089682 -0.4590847963342963 0.007105026066537734 88 83 79 0.37 50 0 51 0 52 0 53 0 
905 -0.7864706359259115 -0.4409251746334801 0.022715573056714122 140 140 139 0.12 50 0 51 0 52 0 
906 -0.5757722748067127 -0.45980480281409725 0.00792746823749213 68 57 56 0.38 50 0 51 0 52 0 53 0 
907 0.760005530205824 -0.5968610080253481 -0.11203145867506525 71 67 63 0.62 50 0 51 0 52 0 53 0 54 0 63 0 64 0 
908 -0.6486024868601252 -0.45780904700034447 0.017291177390670986 84 73 67 0.54 50 0 51 0 52 0 53 0 54 0 
909 -0.6030580561400511 -0.4620725537526166 0.006820168351055811 70 50 46 0.3 50 0 51 0 52 0 53 0 54 0 
910 0.45751887992918444 -0.5741239585345145 -0.09065060747404785 66 69 74 1.06 50 0 51 0 52 0 53 0 54 0 63 0 64 0 
911 0.4862245269661451 -0.5758231524905424 -0.0827403812198404 85 84 86 0.39 50 0 52 0 53 0 63 0 
912 1.4012843936874702 -0.7117203236743344 0.10682189569938316 36 37 45 1.22 50 0 51 0 52 0 54 0 
913 1.3594489488675565 -0.7037744147389002 0.06094680267560393 51 52 57 0.29 50 0 51 0 52 0 54 0 
914 -1.5917489498606194 0.3860025962055618 -7.794104404163681 79 74 74 0.37 50 0 51 0 52 0 
915 -0.6988232722059027 -0.458587689679627 0.021349952211460854 111 86 83 1.01 50 0 51 0 52 0 53 0 54 0 
916 -0.5033825756529443 -0.4762662295001152 0.002249047942138871 77 72 70 0.26 50 0 51 0 52 0 
917 0.4069545188685347 -0.5723496629003696 -0.08741620974659448 66 66 66 0.73 50 0 51 0 52 0 53 0 54 0 63 0 64 0 
918 1.2397665273916343 -0.667579799300523 -0.16700268046794542 88 100 110 1.25 50 0 51 0 52 0 54 0 64 0 
919 1.3561640063667486 -0.6987953581913244 -0.0287925401468605 87 98 109 1.67 50 0 51 0 52 0 53 0 54 0 
920 1.373314571776439 -0.7012140840071382 -0.012678214942600352 48 49 50 0.55 50 0 51 0 52 0 54 0 
921 -0.5195332942237332 -0.4771725665574724 0.006399286639672264 35 32 33 0.72 50 0 51 0 52 0 
922 -0.5608537166570833 -0.4740856760976952 0.005689075521295495 54 51 48 0.47 50 0 52 0 53 0 
923 -0.5428921595787464 -0.47572395934364087 0.00039859120935137327 108 106 107 0.64 50 0 51 0 52 0 53 0 
924 1.4023259437676194 -0.7000870016883101 -0.08445775384805887 84 97 117 1.2 50 0 51 0 52 0 53 0 
925 0.8634987350182428 -0.6353343006227025 -0.1289214666264782 69 57 52 0.74 50 0 51 0 52 0 53 0 54 0 64 0 
926 -0.786004191837314 -0.45841664896196405 0.02266635746046286 91 84 88 0.47 50 0 51 0 52 0 
927 -0.7674943040725692 -0.45843070663862356 0.023624471832957905 98 77 76 0.53 50 0 51 0 52 0 53 0 54 0 
928 0.30377002078450516 -0.5727827185063239 -0.07987259145235681 104 107 108 0.29 50 0 51 0 52 0 53 0 54 0 63 0 
929 0.27907136517909287 -0.5727518810829106 -0.08177493023002635 72 71 70 0.33 50 0 51 0 52 0 53 0 54 0 63 0 64 0 
930 1.0471306544886645 -0.6603368488115378 -0.17393774169759202 20 24 29 0.59 50 0 51 0 52 0 53 0 
931 -0.5620742263124432 -0.4839829488241916 0.0038741574044649507 59 48 48 0.63 50 0 51 0 52 0 53 0 
932 -0.49942424925159723 -0.48818821913638705 -0.020362340852435823 59 52 49 0.24 50 0 51 0 52 0 
933 0.7958035662699392 -0.6370869556572388 -0.12291016123004006 77 77 71 0.27 50 0 52 0 53 0 64 0 
934 1.2160277754838336 -0.7182429413557144 0.14091150728129076 56 55 60 0.44 50 0 51 0 52 0 53 0 54 0 
935 0.4540058006238837 -0.6001947465727893 -0.09019673295012454 98 92 88 0.34 50 0 52 0 53 0 54 0 63 0 64 0 
936 -0.9102020055572526 -0.36648613874108116 -1.0434950578501319 48 53 56 0.34 50 0 51 0 52 0 
937 -0.7923700651263814 -0.4714760107515103 0.026621059378388656 154 144 145 0.56 50 0 51 0 52 0 
938 -0.7737546256757348 -0.4745662420125563 0.02456153402116601 133 130 130 0.36 50 0 51 0 52 0 
939 0.8817587645398635 -0.6621681885949829 -0.14886449914014954 62 64 62 0.39 50 0 51 0 52 0 
940 -0.6183504103212276 -0.4915470226749703 0.002204772167458291 75 57 54 0.56 50 0 51 0 52 0 53 0 54 0 
941 0.2772956909033542 -0.5914561821636725 -0.08693407415718646 48 37 40 0.52 50 0 51 0 52 0 53 0 54 0 
942 -0.6620827910517604 -0.4891944934877502 0.005608170761349118 70 48 44 0.55 50 0 51 0 52 0 53 0 54 0 
943 -0.49355279323116835 -0.5052714688206404 -0.012339146097477993 59 55 53 0.29 50 0 51 0 52 0 
944 -0.7079258136241495 -0.4865853393307284 0.013915626335881726 90 77 74 0.43 50 0 51 0 52 0 53 0 54 0 
945 -0.5202728955239401 -0.5057212054085367 -0.0070192864834282 87 83 82 0.24 50 0 51 0 52 0 
946 0.24862302292128396 -0.5933672712821981 -0.09502081832399045 32 20 22 0.43 50 0 51 0 52 0 54 0 63 0 64 0 
947 -0.7439072273135381 -0.4841842156232898 0.015593307957188385 131 126 126 0.32 50 0 52 0 53 0 54 0 
948 -0.5426076239884914 -0.5064616920553419 -0.0004968559654427995 83 81 81 0.66 50 0 51 0 52 0 53 0 
949 -0.5992348391074093 -0.5036352704455728 0.003494851451343317 70 64 57 0.25 50 0 51 0 52 0 53 0 
950 -0.9569193383468491 -0.38724706726598274 -1.0942790037241281 33 45 58 0.15 50 0 51 0 52 0 
951 -0.913061647182208 -0.3946123388134157 -1.0402869986713212 35 47 60 0.22 50 0 51 0 52 0 
952 -0.6299447971094281 -0.503258024127209 0.00470217978992804 82 77 75 0.36 50 0 51 0 52 0 53 0 54 0 
953 0.21513959555975387 -0.5998236292257655 -0.09365984524004545 50 37 46 0.55 50 0 51 0 52 0 53 0 54 0 63 0 64 0 
954 0.4530226360568506 -0.6315223250986477 -0.09667834636131323 61 62 57 0.59 50 0 51 0 52 0 53 0 54 0 
955 0.7834343112213022 -0.6928717386931729 0.06281442321523811 92 96 111 0.71 50 0 51 0 52 0 
956 -0.6530019308891631 -0.5019316898202985 -0.016296458096839217 90 84 77 0.48 50 0 52 0 53 0 54 0 
957 0.7986265399028329 -0.6889333834628416 -0.017778498731532366 114 118 121 0.31 50 0 51 0 52 0 53 0 54 0 
958 -0.673761798420498 -0.5026561464253111 0.005767920125435699 87 80 74 1.1 50 0 51 0 52 0 53 0 54 0 
959 -0.7160686972452508 -0.5015086247767433 0.016255312133668598 92 78 72 0.57 50 0 52 0 54 0 
960 0.08519057217925363 -0.5949534970190004 -0.08773358828947897 29 23 24 0.43 50 0 51 0 52 0 
961 0.12285035601578448 -0.5993925138177769 -0.08495436299071213 48 34 40 0.4 50 0 51 0 52 0 53 0 54 0 63 0 
962 -0.6174971199308079 -0.5148938193127257 0.003922861315393877 67 49 49 0.83 50 0 51 0 52 0 53 0 54 0 
963 -0.5657914067530179 -0.5197752570760229 -0.004469201678406698 83 79 78 0.52 50 0 51 0 52 0 53 0 54 0 
964 0.3596043059723088 -0.6341171608559387 -0.09034785677693224 85 84 82 0.67 50 0 51 0 52 0 53 0 54 0 63 0 64 0 
965 0.32581160092953626 -0.6331671319765333 -0.08367463733348668 78 77 76 0.93 50 0 51 0 52 0 53 0 54 0 63 0 64 0 
966 0.7156282587612017 -0.6907377740388221 -0.02991128822106326 128 131 134 0.55 50 0 51 0 52 0 53 0 54 0 
967 -0.9016393033559718 -0.42283360096131456 -0.959071877888961 43 43 50 0.73 50 0 51 0 52 0 
968 -0.9604860485020748 -0.40883670532872285 -1.1058000545455389 85 85 93 0.36 50 0 51 0 52 0 
969 -0.4328288426563355 -0.5651174364845598 0.2918215977668823 20 36 39 0.31 50 0 52 0 53 0 
970 0.5738234669982416 -0.68706652328222 0.04879142671088288 109 108 108 0.8 50 0 51 0 52 0 53 0 54 0 
971 -0.5081468100836992 -0.5357496173016204 -0.009666074806869318 44 34 32 0.37 50 0 51 0 52 0 53 0 
972 0.5672214386410714 -0.6881711075930061 0.037586381084272924 84 88 90 0.2 50 0 51 0 52 0 
973 -0.5851005027396226 -0.5333297943018958 -0.00011143950174985484 92 89 86 0.37 50 0 51 0 52 0 53 0 54 0 
974 0.646709258077589 -0.6970480065657183 -0.09045918374110418 114 117 120 3.08 50 0 51 0 52 0 53 0 63 0 64 0 
975 -0.4712309379536085 -0.5485327700243807 0.004660833939408304 64 68 66 1.69 50 0 52 0 53 0 
976 -0.6301643573780771 -0.5342393699361749 0.010797059831322287 58 43 42 0.2 50 0 51 0 52 0 
977 -0.046032174805295145 -0.6132547306241062 0.038379769854262724 46 36 42 1.37 50 0 52 0 53 0 
978 0.2447087416558535 -0.6446636428477726 -0.09812906252152986 43 41 48 0.8 50 0 51 0 52 0 53 0 54 0 63 0 
979 0.3129550952787084 -0.6580800056634393 -0.04636829148953314 50 54 54 0.16 50 0 51 0 52 0 
980 0.36037738634015054 -0.6615191929879531 -0.07419104342339056 70 68 67 0.89 50 0 52 0 54 0 
981 -0.5252590932610781 -0.5482980264617392 -0.0008285774474503516 67 63 62 1.17 50 0 51 0 52 0 53 0 54 0 
982 0.5731322859478147 -0.7199506551783204 0.25113089481098294 69 51 56 0.52 50 0 51 0 52 0 53 0 54 0 
983 -0.425041186232906 -0.5803180083063221 0.28028720156372344 23 37 35 0.19 50 0 51 0 52 0 
984 -0.5646983012964382 -0.5485696341699842 -0.00277667960056327 95 92 87 0.58 50 0 51 0 52 0 53 0 54 0 
985 0.27173971331384444 -0.6585846743239081 -0.07662418232061818 41 54 59 0.4 50 0 51 0 52 0 53 0 54 0 
986 -0.6044954590174743 -0.546068884351622 -0.003606034639772382 105 104 100 0.64 50 0 51 0 52 0 53 0 54 0 
987 -0.5853041603486897 -0.5477214814812709 -0.00439929652321891 82 81 79 0.26 50 0 51 0 52 0 53 0 54 0 
988 0.3612310011340119 -0.6877518505768704 0.07244252641396165 104 124 144 0.76 50 0 51 0 52 0 53 0 
989 0.3739488690742769 -0.691748063230263 0.07516599466037555 119 128 145 0.36 50 0 51 0 52 0 54 0 
990 -0.5004583935192192 -0.5639824333730411 -0.010266988954432232 64 66 65 0.29 50 0 51 0 52 0 53 0 
991 -0.525306654051074 -0.5626517690088481 -0.015060861991588848 59 57 52 0.47 50 0 51 0 52 0 53 0 
992 -0.5654642402081853 -0.5632896470941122 -0.008671498603906036 85 85 80 0.5 50 0 51 0 52 0 53 0 54 0 
993 0.41630659538295683 -0.7232676887607807 0.2850766995721994 95 91 101 0.46 50 0 51 0 52 0 53 0 54 0 
994 0.2172114750500354 -0.6781545450244051 0.019413999160848183 109 128 155 0.28 50 0 51 0 52 0 53 0 63 0 
995 0.16321095764759558 -0.6689339235745954 -0.04105302208181638 101 120 143 0.59 50 0 52 0 53 0 
996 0.39445654837211125 -0.733292662137331 0.36847164703221935 93 86 99 0.39 50 0 51 0 52 0 53 0 
997 0.39957040753951917 -0.7369396349964734 0.3977441664223602 43 28 34 0.14 50 0 51 0 52 0 53 0 
998 0.1420312739702328 -0.6774395886866367 0.028124641004896977 95 115 141 0.35 50 0 51 0 52 0 54 0 
999 -0.17676531780566382 -0.6491616977006321 0.06956042886254776 30 40 47 2.56 50 0 51 0 52 0 53 0 
1000 -0.3241383225702596 -0.6373023932434043 0.17733482166600023 18 15 14 0.19 50 0 51 0 52 0 
1001 0.13023006754378674 -0.7249551131637214 0.34380718554224776 52 54 63 0.61 50 0 51 0 52 0 
1002 0.009369352904019468 -0.7009799846944303 0.18455113552092728 63 55 62 0.55 50 0 51 0 52 0 53 0 
1003 -0.3264642743976613 -0.6562078206924032 0.16840455725420034 19 19 17 0.3 50 0 51 0 52 0 53 0 
1004 -0.1465769006567588 -0.7088156699618955 0.2599665221327978 25 22 26 0.4 50 0 51 0 52 0 53 0 
1005 -0.13443569011076095 -0.7107923116692917 0.2686498586370343 39 29 31 0.4 50 0 51 0 52 0 53 0 54 0 
1006 -0.0024781103450258746 0.9296558518427767 0.1581596032791106 147 152 161 0.31 51 0 52 0 63 0 
1007 -0.08861781531582388 0.8023378808354955 0.14912811987159902 168 168 168 0.98 51 0 52 0 63 0 
1008 -0.03186878634365817 0.7738638888200193 0.1363273437651331 134 120 119 0.49 51 0 52 0 53 0 
1009 -0.16598712537235344 0.728945223545501 0.14142654533311116 146 145 145 0.39 51 0 52 0 53 0 64 0 
1010 -0.11399314843616537 0.7181036218101781 0.16169362942352095 154 141 135 0.19 51 0 52 0 53 0 
1011 -0.3478566739014415 0.6521845273786927 0.1449761891667236 163 157 151 0.19 51 0 52 0 53 0 
1012 -0.273718392310284 0.6740757071905954 0.131643585770288 157 147 141 0.21 51 0 52 0 53 0 
1013 -0.3313644305189003 0.6421283698448295 0.1489644869035267 190 194 192 0.32 51 0 52 0 63 0 
1014 -0.12647277703688226 0.6778370634183186 0.1335829760151921 170 170 169 0.28 51 0 52 0 53 0 
1015 -0.335686840179265 0.6352927702515663 0.12016740738383702 169 160 154 0.27 51 0 52 0 53 0 
1016 -0.15480746783559912 0.6453709912204526 0.1314810411076741 146 133 128 0.69 51 0 52 0 64 0 
1017 -0.0957614471913738 0.6512412215333458 0.12002866603888673 149 135 127 1.08 51 0 52 0 64 0 
1018 -0.42559010787457174 0.5480749653135176 0.16829386204693786 152 147 145 0.19 51 0 52 0 53 0 
1019 -0.42352298946770933 0.5428630527327385 0.13301700613960965 145 132 123 0.29 51 0 52 0 53 0 
1020 0.5804787185445743 0.7597473723304287 0.07994012427970132 135 138 140 0.92 51 0 52 0 64 0 
1021 0.8008349132733026 0.7907105726535768 0.0740305661044478 167 159 159 1.11 51 0 52 0 53 0 54 0 63 0 64 0 
1022 0.6284361991131997 0.7472297238768671 0.08351950239899786 154 143 144 0.74 51 0 52 0 53 0 54 0 63 0 64 0 
1023 0.753243018252346 0.7556353100886295 0.07541638076451318 139 132 131 0.31 51 0 52 0 54 0 63 0 
1024 -0.3593488730610651 0.5101984858376788 0.12891555918514186 144 134 130 1.02 51 0 52 0 53 0 54 0 
1025 -0.19014316894542116 0.5678644703512288 0.08331257179955087 162 154 147 0.77 51 0 52 0 54 0 
1026 -0.7055156407419685 0.41927827357960396 0.14344164837694406 173 177 179 0.38 51 0 52 0 53 0 54 0 
1027 -0.6007926212058834 0.43180656526665734 0.13939766157757782 161 156 153 0.54 51 0 52 0 53 0 54 0 
1028 -0.36508445740782985 0.4766334772829384 0.12787583655935464 168 172 170 0.52 51 0 52 0 53 0 54 0 
1029 -0.7101776073771996 0.3901459562504988 0.14031885964097324 106 92 92 0.37 51 0 52 0 54 0 
1030 1.073153326570497 0.7511737995454866 0.01899772630454888 195 191 189 1.12 51 0 52 0 53 0 54 0 
1031 0.6650793999815716 0.6495852321952207 0.06532104397462546 108 103 109 0.25 51 0 52 0 53 0 54 0 63 0 64 0 
1032 -0.32538824132862826 0.44736153901421766 0.11505218698631459 154 148 145 0.3 51 0 52 0 53 0 54 0 
1033 -0.389162801585732 0.40718575404019225 0.12878381207039968 170 165 162 0.8 51 0 52 0 53 0 54 0 
1034 0.882660885883993 0.6548486279785015 0.047086697898554464 157 140 132 0.59 51 0 52 0 53 0 54 0 64 0 
1035 -0.7381535446834029 0.34259068180454055 0.1381390808399754 158 150 146 0.71 51 0 52 0 53 0 54 0 
1036 -0.34958786329087277 0.4110105898248542 0.1173526374352829 134 135 139 0.6 51 0 52 0 53 0 54 0 64 0 
1037 0.2531042611129339 0.5191055271238516 0.0794705223067469 181 177 173 0.28 51 0 52 0 53 0 54 0 63 0 64 0 
1038 0.3166994857368986 0.5290714819894202 0.07647677849276002 81 87 95 0.71 51 0 52 0 63 0 64 0 
1039 0.9437460560016446 0.6358768655543867 0.03887639364576456 154 149 148 0.98 51 0 52 0 64 0 
1040 -0.7507524975493509 0.3293993109539151 0.13042552543052977 163 158 158 0.35 51 0 52 0 53 0 54 0 
1041 -0.5036466759008837 0.36745100228327526 0.1209027836816674 156 143 139 0.5 51 0 52 0 53 0 54 0 
1042 -0.37683179203308376 0.3849077028019739 0.11445185699715221 180 174 168 0.43 51 0 52 0 53 0 54 0 
1043 -0.06744245133623378 0.4482583660423492 0.06830206509596048 162 157 154 1.17 51 0 52 0 53 0 
1044 -0.7329994431028917 0.3102055785223574 0.13437998771226045 149 154 157 0.62 51 0 52 0 53 0 54 0 
1045 -0.7533808286284248 0.29721260269419814 0.13319795150420033 144 144 144 0.53 51 0 52 0 53 0 54 0 
1046 1.8868489937920105 0.7578308271631051 -0.023593210775291196 55 42 40 0.42 51 0 52 0 53 0 54 0 
1047 -0.2332484262148587 0.38217578063200847 0.09737865196525575 80 90 99 0.95 51 0 52 0 53 0 63 0 
1048 0.7331995070313135 0.5229207298951825 0.07239518583234572 110 105 105 0.32 51 0 52 0 53 0 
1049 -0.33563949710184626 0.357396782008849 0.09891256190836728 145 146 146 0.33 51 0 52 0 53 0 54 0 
1050 -0.7540343077776872 0.2867837337951302 0.12783375334114488 180 185 187 0.3 51 0 52 0 53 0 
1051 0.00788610876460355 0.4115824148064369 0.08379326594442515 101 97 105 0.49 51 0 52 0 53 0 63 0 64 0 
1052 -0.7412825591920206 0.28556802402802706 0.1305075305580672 169 166 163 0.62 51 0 52 0 53 0 54 0 
1053 -0.6125709814658884 0.30195027457260004 0.11385671195948532 111 113 113 0.76 51 0 52 0 53 0 54 0 
1054 -0.18501598403790323 0.36393941511768046 0.09592845172915099 77 83 93 0.34 51 0 52 0 53 0 54 0 
1055 1.9605421264833809 0.7260318256760322 -0.03079760668396414 126 108 93 0.38 51 0 52 0 53 0 54 0 63 0 
1056 -0.32152136675068244 0.34430953659204055 0.09562706264840126 137 126 123 0.91 51 0 52 0 53 0 54 0 
1057 -0.29348929427154624 0.34307308907061307 0.09765398831608918 179 182 184 0.35 51 0 52 0 53 0 54 0 
1058 0.11198315134886294 0.3991280842474552 0.07764825169034428 143 147 151 0.31 51 0 52 0 53 0 63 0 
1059 -0.7731826245396729 0.27034171815814245 0.10448986784089787 110 117 119 0.51 51 0 52 0 54 0 
1060 -1.1398102095619969 0.7994420069057414 -0.9257734067077432 198 213 227 0.62 51 0 52 0 53 0 
1061 -1.0918736918802485 0.8142167363965167 -0.9587581330267686 194 207 220 2.98 51 0 52 0 53 0 
1062 -0.7362784000457212 0.25791854817924625 0.12084141550713845 188 194 202 0.36 51 0 52 0 53 0 54 0 
1063 -0.1858626027767732 0.3402973922564202 0.08593057651515523 157 144 141 0.38 51 0 52 0 53 0 54 0 
1064 1.7654746103219519 0.645021434933343 -0.02890211578571278 81 72 77 0.65 51 0 52 0 53 0 54 0 
1065 0.4138835194441594 0.4307957556276471 0.04613746885150438 155 138 134 0.71 51 0 52 0 53 0 54 0 63 0 
1066 -0.037479176652471524 0.3472701270290283 0.08922056424031655 161 161 161 0.43 51 0 52 0 53 0 
1067 0.05309111977705311 0.38294109381872327 0.049964348252460766 130 123 123 0.56 51 0 52 0 54 0 
1068 -1.0119080884987703 0.7822390901767555 -0.9106822382723317 187 202 214 0.11 51 0 52 0 53 0 
1069 -0.6762979481143745 0.256578247992353 0.11674411775158555 84 77 86 0.33 51 0 52 0 53 0 54 0 
1070 0.29866472074077904 0.3989842879667989 0.057215968435521125 123 117 119 0.43 51 0 52 0 53 0 54 0 64 0 
1071 0.34770106020574326 0.40710901456094434 0.05594931623981636 105 108 120 1.36 51 0 52 0 53 0 54 0 63 0 64 0 
1072 1.7472126703469448 0.6177636723737963 -0.017983946266398654 67 66 74 0.34 51 0 52 0 54 0 
1073 -1.2582946668300525 0.8270667166342476 -1.066460608714486 151 170 187 3.39 51 0 52 0 53 0 
1074 -0.6202896426163427 0.2664702061507025 0.09446293305494113 137 131 127 0.8 51 0 52 0 53 0 
1075 1.2374250259618118 0.5345849646495855 0.002017586234760893 136 132 134 0.39 51 0 52 0 53 0 54 0 63 0 64 0 
1076 -0.7654603125018256 0.2437229788961065 0.0966442343503402 115 113 114 1.11 51 0 52 0 53 0 
1077 -0.07056534132065273 0.3293651218157992 0.07236756293651103 174 175 176 0.61 51 0 52 0 53 0 54 0 
1078 -0.997848687658285 0.7566014873352596 -0.9173382728015195 189 207 219 1.23 51 0 52 0 53 0 
1079 -0.1609777737080792 0.31128440080979625 0.08195696812467101 164 165 170 0.7 51 0 52 0 53 0 54 0 
1080 0.4000314805256568 0.3881185828019866 0.04942723289921758 80 78 88 0.38 51 0 52 0 53 0 54 0 63 0 
1081 -0.6346143179877002 0.22795072245555048 0.11025697638904819 136 112 108 0.38 51 0 52 0 53 0 54 0 
1082 0.05101109635115092 0.3249098592166769 0.06775278296484388 168 167 166 0.46 51 0 52 0 53 0 54 0 63 0 64 0 
1083 0.26721321144396176 0.33787459712926987 0.05290599754782299 167 169 170 0.44 51 0 52 0 54 0 63 0 
1084 0.7622926576038167 0.4038903722407033 0.02121641417966047 104 109 115 0.36 51 0 52 0 53 0 
1085 -0.19113359542175193 0.27506567630878426 0.06634487664008648 99 97 100 0.48 51 0 52 0 53 0 
1086 0.8870153459184358 0.3996446074461976 0.012389531079772365 102 102 110 0.5 51 0 52 0 53 0 63 0 64 0 
1087 -0.6969204542000675 0.18477278652451812 0.11058574414474065 170 172 176 0.13 51 0 52 0 53 0 
1088 -0.18764529103047922 0.2506551370331718 0.07827437735210441 151 150 150 0.85 51 0 52 0 53 0 54 0 63 0 
1089 -0.2541048270342571 0.2388958468104146 0.07816363082193978 153 146 145 0.94 51 0 52 0 53 0 54 0 
1090 0.09906761756682186 0.2804957184966364 0.05796915480549547 155 156 160 0.71 51 0 52 0 54 0 63 0 64 0 
1091 -0.12534291092493488 0.2548181566337138 0.06195342722566832 158 148 145 0.35 51 0 52 0 54 0 
1092 0.3115612012775529 0.30498460540179245 0.04158517785917204 139 125 127 1.39 51 0 52 0 53 0 54 0 63 0 64 0 
1093 0.43462567677312186 0.3190573934689565 0.04056857804648639 152 150 150 1.56 51 0 52 0 53 0 54 0 63 0 
1094 0.15338024676213852 0.28020437011546234 0.05120138399788532 166 162 164 0.88 51 0 52 0 53 0 54 0 63 0 
1095 0.9006409141387364 0.3819223784884758 -0.0020233504021001103 144 142 140 0.14 51 0 52 0 54 0 64 0 
1096 1.2826830779495069 0.4196870352069923 -0.017771931358876225 128 121 123 0.55 51 0 52 0 53 0 54 0 63 0 64 0 
1097 0.46998928893098096 0.31368780002228586 0.03266853581236995 107 101 108 0.34 51 0 52 0 53 0 54 0 63 0 
1098 -0.10085123337598689 0.2327661672115386 0.07385031806259756 155 135 131 0.28 51 0 52 0 54 0 
1099 0.5195720856577744 0.31342659410315404 0.028368893767765968 92 91 99 0.28 51 0 52 0 64 0 
1100 -0.7337807322705019 0.154663071295792 0.11146941629274898 182 180 184 0.33 51 0 52 0 54 0 
1101 1.2225506067710497 0.39332302215511256 -0.015905341838405196 119 111 112 0.19 51 0 52 0 54 0 64 0 
1102 0.8772639238646682 0.3530805532610161 -0.0035153056505197178 157 145 144 3.27 51 0 52 0 53 0 54 0 63 0 64 0 
1103 0.06457652926428259 0.24862234684728818 0.05727548336692889 147 142 146 0.98 51 0 52 0 53 0 54 0 63 0 64 0 
1104 0.11049021405180831 0.24814663126570374 0.05712261871654056 149 143 139 0.47 51 0 52 0 54 0 
1105 -0.5215995136061646 0.1757736771399211 0.08821577787023882 133 123 122 0.27 51 0 52 0 54 0 
1106 0.9193447413196876 0.3475446587106115 -0.000759830783104487 154 143 141 0.87 51 0 52 0 53 0 54 0 63 0 64 0 
1107 -0.3842016008064959 0.18816327512519038 0.08252777569859848 106 87 82 0.4 51 0 52 0 53 0 54 0 
1108 -0.7130521345412753 0.14687825778190428 0.10593656004843299 158 155 152 0.03 51 0 52 0 54 0 
1109 -1.3197758636994616 0.8072370072134102 -1.398475251516216 52 42 38 0.2 51 0 52 0 53 0 
1110 -0.04617099894338156 0.2263604489766426 0.05272929842405416 162 158 157 0.3 51 0 52 0 54 0 
1111 -0.4179513376855204 0.1755012375142448 0.08474094440323343 104 105 110 1.19 51 0 52 0 53 0 
1112 1.4268637948604617 0.3913064141109815 -0.032712774167489744 134 125 125 0.63 51 0 52 0 53 0 63 0 
1113 -0.4522074283599703 0.16750252561199125 0.0894067883317704 100 90 97 0.61 51 0 52 0 63 0 64 0 
1114 -0.32540559377397366 0.18351354472266795 0.07964076286571165 118 107 100 0.51 51 0 52 0 53 0 
1115 0.8019586039037359 0.3151305549800894 -0.015067665275430908 151 144 141 1.02 51 0 52 0 53 0 54 0 
1116 -0.5200442685454889 0.1567117722908335 0.09018493340888023 129 115 113 1.2 51 0 52 0 53 0 54 0 
1117 -0.3680556369420953 0.1735805447270536 0.0785399607221422 100 84 85 0.22 51 0 52 0 53 0 54 0 
1118 -0.4932160118545899 0.15878140129566798 0.08325271217962937 121 104 102 0.93 51 0 52 0 53 0 54 0 
1119 1.1802872132580298 0.34484916345765443 -0.01842740495414774 158 154 157 1.06 51 0 52 0 53 0 63 0 64 0 
1120 -0.740892089635713 0.1279980976718747 0.10438466595168827 53 65 82 0.22 51 0 52 0 53 0 54 0 
1121 -0.6015235457893893 0.14263383216471348 0.09617212904090655 130 115 110 0.42 51 0 52 0 53 0 54 0 
1122 -0.4509823450548261 0.16164851466408225 0.07968531151452707 134 113 105 0.52 51 0 52 0 53 0 54 0 
1123 -0.20232637427959263 0.187131653611823 0.06197563664126271 150 145 142 0.67 51 0 52 0 53 0 54 0 
1124 0.23238925969676905 0.22937208022208305 0.041157542685300585 109 99 102 0.61 51 0 52 0 53 0 54 0 63 0 64 0 
1125 1.591253629638827 0.3828988854164282 -0.047903838697514356 91 85 93 0.73 51 0 52 0 53 0 54 0 63 0 64 0 
1126 -0.6857152847889499 0.12767111024235306 0.09964773092830903 113 90 85 0.66 51 0 52 0 53 0 54 0 
1127 -0.6554824859624588 0.13096833517159462 0.09189193124823802 115 107 112 0.39 51 0 52 0 54 0 
1128 -0.4063511968411372 0.1554242801877031 0.08224911814348124 131 122 122 0.99 51 0 52 0 53 0 54 0 
1129 -0.19035610867122926 0.1731252235709661 0.07928375050158754 127 116 115 0.71 51 0 52 0 54 0 
1130 1.9387486968505265 0.40798891264974385 -0.06357730712650111 105 101 107 0.76 51 0 52 0 54 0 
1131 -0.6326336125450047 0.12517125354939068 0.10361897808032094 116 102 99 0.22 51 0 52 0 53 0 54 0 
1132 -0.15241849301715715 0.17283602735544462 0.07726630525461387 169 164 167 1.06 51 0 52 0 53 0 
1133 0.015951026072674457 0.19504490820244397 0.05274157271216806 151 148 149 1.11 51 0 52 0 53 0 54 0 63 0 
1134 -0.4815218239851637 0.14394049820056748 0.07734121952654593 136 136 140 0.49 51 0 52 0 54 0 
1135 -0.0842556945939767 0.1791479113423659 0.06226488582895229 162 160 159 0.51 51 0 52 0 53 0 54 0 
1136 -0.2746149903587592 0.1569735249575947 0.06885249251640602 150 144 143 1.25 51 0 52 0 53 0 54 0 63 0 
1137 0.07205747538489843 0.19340568751505577 0.04897388020928606 131 123 123 0.67 51 0 52 0 53 0 54 0 63 0 
1138 -0.6728054243646935 0.10861637213214585 0.10862571682709787 126 115 115 0.52 51 0 52 0 53 0 
1139 -0.5114708471338656 0.1255031959035185 0.09275151116724101 129 122 122 0.26 51 0 52 0 53 0 54 0 
1140 -0.3563959122631204 0.14409403183755293 0.0694341387237074 153 148 151 0.63 51 0 52 0 53 0 54 0 
1141 -0.48255651993761517 0.12544711986269924 0.08440306001065823 122 117 121 0.52 51 0 52 0 53 0 54 0 
1142 -0.6120270539187813 0.11373487211570198 0.08683616961921925 70 60 66 0.21 51 0 52 0 53 0 
1143 0.9320085122067583 0.2615486933607925 -0.007484021756321013 110 97 96 1.15 51 0 52 0 53 0 54 0 63 0 64 0 
1144 -0.7196564181808356 0.0879974812841589 0.11005324135246464 142 134 130 0.72 51 0 52 0 53 0 
1145 0.5411263351177091 0.2139749690963803 0.011049910666709684 152 151 149 0.58 51 0 52 0 53 0 54 0 63 0 64 0 
1146 -0.7587493111767998 0.08428529780421777 0.1003620718472722 130 113 115 0.42 51 0 52 0 53 0 54 0 
1147 0.10402445714328695 0.16793901809638917 0.04072281915529774 129 114 108 0.38 51 0 52 0 53 0 54 0 
1148 -0.5538102904463806 0.0953937295451222 0.09796495175580566 129 121 121 0.41 51 0 52 0 53 0 54 0 
1149 -0.13039273887226635 0.14345026957260681 0.04732753990587768 142 138 139 1.19 51 0 52 0 53 0 54 0 
1150 -0.149968696577207 0.1344951530781044 0.06216061254926353 137 121 116 0.66 51 0 52 0 53 0 54 0 
1151 0.14529428667050387 0.16974243490865643 0.024393691929700312 159 154 152 1.87 51 0 52 0 54 0 
1152 0.06694362850574537 0.15082842279072434 0.045354090743372044 153 148 141 0.55 51 0 52 0 53 0 54 0 63 0 64 0 
1153 -1.349485014043158 0.7545948003794432 -1.5931596195678954 57 52 48 0.47 51 0 52 0 53 0 
1154 -0.720791434662728 0.06881600748098742 0.10140556983917293 104 93 98 0.31 51 0 52 0 54 0 
1155 -0.41297660304580036 0.10028568002111231 0.07217899137825312 154 152 156 0.72 51 0 52 0 53 0 54 0 
1156 -0.14423019215189006 0.1267974822316778 0.04879076207928579 152 145 145 0.39 51 0 52 0 53 0 
1157 -0.5314441366191098 0.08527949368478376 0.08371945800220582 116 103 103 0.56 51 0 52 0 53 0 54 0 
1158 -0.25339285844643133 0.11358677423747891 0.05904590238921248 134 131 132 0.22 51 0 52 0 53 0 54 0 
1159 -0.3532603737906934 0.09892374839813182 0.06904593223123534 142 133 137 0.63 51 0 52 0 53 0 54 0 
1160 -0.3304453313917066 0.10556948483400168 0.054309341542290834 131 122 126 0.38 51 0 52 0 53 0 54 0 
1161 -0.19273948101329746 0.11033783310525573 0.055740188585610806 123 113 116 0.24 51 0 52 0 53 0 54 0 
1162 0.022667693500446007 0.13191684897144546 0.035011279349379754 133 119 119 0.67 51 0 52 0 53 0 54 0 
1163 0.26844729066701906 0.15063121716995115 0.027321747605378865 90 83 87 0.69 51 0 52 0 54 0 63 0 64 0 
1164 0.19905556257807738 0.13986030433174984 0.022696969760866992 128 123 125 0.58 51 0 52 0 53 0 54 0 
1165 -0.2205308342639094 0.09218371611905456 0.0716066038271379 113 106 108 0.97 51 0 52 0 53 0 54 0 
1166 1.7867943512548132 0.2707970399369684 -0.07056192600170474 66 76 87 0.52 51 0 52 0 53 0 54 0 
1167 -0.18917488162225543 0.1045716470369115 0.04232673638847628 102 93 96 0.29 51 0 52 0 53 0 
1168 -0.33266194566558815 0.08528928574220311 0.060426547845400025 138 135 135 0.49 51 0 52 0 63 0 
1169 0.016181052375825733 0.11440706928803861 0.03773276882845589 135 125 118 0.48 51 0 52 0 53 0 54 0 
1170 1.8567894475293332 0.2681983539074086 -0.0801201684731514 135 131 132 0.33 51 0 52 0 53 0 
1171 -0.4648269999966942 0.07109817688272717 0.07152837876519613 140 129 131 0.37 51 0 52 0 53 0 54 0 
1172 0.2732663343140583 0.13185185794343096 0.023314313761971128 175 173 174 0.39 51 0 52 0 54 0 
1173 1.4896713358426181 0.23526116520736978 -0.05967297116993553 134 136 138 0.53 51 0 52 0 53 0 54 0 63 0 
1174 1.7427381052090014 0.25660189736451616 -0.07438925267040664 114 91 91 0.54 51 0 52 0 53 0 64 0 
1175 -0.07815166435667209 0.09642878088361244 0.0502890034095369 129 122 122 0.52 51 0 52 0 53 0 
1176 0.4341717025499186 0.13947286956332633 0.014281112095954729 62 63 72 0.24 51 0 52 0 54 0 64 0 
1177 0.3654001617615024 0.14032479329303843 -0.0001234735368094153 130 122 121 0.39 51 0 52 0 54 0 
1178 1.4048867675862937 0.21628884507403018 -0.04802953668731558 125 127 131 0.37 51 0 52 0 54 0 63 0 
1179 -0.5087342696638399 0.060070965690451714 0.07202947018299488 132 117 118 0.37 51 0 52 0 53 0 54 0 
1180 0.18502833693252357 0.11450836336070351 0.027974617372848343 105 95 98 0.45 51 0 52 0 53 0 63 0 64 0 
1181 0.6242171921370896 0.14754724050421525 -0.004765645942596208 141 138 137 0.68 51 0 52 0 53 0 54 0 63 0 64 0 
1182 -0.0017113340109704 0.09277707908457637 0.04462404687435795 142 131 119 0.33 51 0 52 0 53 0 54 0 
1183 -0.7360481521880786 0.031050637753700913 0.08874651246156096 127 123 123 0.4 51 0 52 0 53 0 54 0 
1184 0.09694151723572919 0.09715950390927723 0.02795734580077336 160 146 135 0.64 51 0 52 0 53 0 54 0 
1185 0.42776881269723505 0.11885669594164398 0.009404043411164187 133 129 132 0.54 51 0 52 0 53 0 54 0 63 0 64 0 
1186 -0.470654010590874 0.046540954905511286 0.06745735877433079 119 105 106 0.23 51 0 52 0 53 0 54 0 
1187 1.559325894377921 0.20055728733453332 -0.06754608261976136 88 96 105 0.43 51 0 52 0 53 0 54 0 
1188 -0.12308546067085002 0.07044828407099206 0.045818529220367 123 110 111 0.47 51 0 52 0 53 0 54 0 63 0 64 0 
1189 -0.7593575134026171 0.017700949051658907 0.0903747753215538 110 100 103 0.63 51 0 52 0 53 0 54 0 
1190 -0.745786687993581 0.01299929959899597 0.0955274530927337 143 140 144 0.45 51 0 52 0 53 0 
1191 -0.3476186058342636 0.04411086224321241 0.06216412336147181 105 94 96 0.36 51 0 52 0 53 0 
1192 -0.154489274917759 0.06317629757712122 0.030772529000729243 115 108 113 1.58 51 0 52 0 53 0 54 0 
1193 0.04401250816127844 0.06797793242428511 0.03040267956120246 159 146 131 0.78 51 0 52 0 53 0 54 0 63 0 
1194 0.42311981036405416 0.09111135012769782 0.00878457926361409 119 113 114 0.46 51 0 52 0 53 0 54 0 63 0 
1195 -0.5705034084335916 0.016486565618363966 0.07209298418999532 124 113 109 0.95 51 0 52 0 54 0 
1196 -0.22781837770913352 0.03445664318462886 0.06741517168010458 127 118 124 1.36 51 0 52 0 53 0 54 0 
1197 -0.1679328591814621 0.038686274529572115 0.05136236877518785 123 119 123 0.46 51 0 52 0 53 0 54 0 
1198 1.1624749275905752 0.11947205138172094 -0.04293850548326472 103 112 119 0.62 51 0 52 0 53 0 54 0 
1199 2.7396346207414286 0.3298224835274884 -0.42010367337622245 139 140 139 0.46 51 0 52 0 53 0 
1200 -0.34982698118952715 0.019728549455462582 0.05358028857072661 118 102 97 0.35 51 0 52 0 54 0 
1201 0.035674128093697244 0.05445981059717979 -0.011126942361949332 144 138 127 0.25 51 0 52 0 54 0 
1202 1.3421000509212817 0.1240214955646544 -0.06679228826261929 103 91 98 0.53 51 0 52 0 53 0 54 0 63 0 64 0 
1203 0.02845084339192655 0.03413725808784633 0.03347086091258711 127 120 120 1.67 51 0 52 0 53 0 54 0 63 0 64 0 
1204 -0.48980105302153326 0.0008682420446328026 0.0628856359561305 108 101 100 0.57 51 0 52 0 53 0 
1205 0.5889045520673744 0.0714529613673323 -0.017860446377015782 194 198 201 0.15 51 0 52 0 64 0 
1206 -0.4703065126465485 0.009135902326884257 0.04048600829809734 158 159 162 0.62 51 0 52 0 53 0 
1207 -0.0477217505126411 0.027979764503924295 0.030096837561567336 122 115 110 0.41 51 0 52 0 54 0 
1208 0.8133896253346076 0.0813602323586851 -0.025517575811686566 137 126 127 0.97 51 0 52 0 53 0 54 0 64 0 
1209 0.1843039928181464 0.040822575587849116 0.008217408782555502 138 131 122 0.41 51 0 52 0 53 0 63 0 
1210 -0.5782125507223055 -0.010056880779436075 0.06675044512150752 142 140 141 0.66 51 0 52 0 53 0 54 0 
1211 -0.22053255836521096 0.012984290264643802 0.037169301730707316 143 137 135 0.34 51 0 52 0 53 0 
1212 -0.18410391980600904 0.021190677632670726 0.0249417736451385 143 134 136 0.88 51 0 52 0 53 0 54 0 
1213 -0.5101180718787317 -0.004826427826698801 0.04744966609897383 152 150 147 0.27 51 0 52 0 53 0 
1214 -0.06908672881983813 0.014338203447591333 0.029036707803885786 111 110 105 0.59 51 0 52 0 53 0 
1215 1.5285268465630095 0.10310498847937104 -0.08308519963198435 110 108 115 0.46 51 0 52 0 53 0 54 0 
1216 -0.4184061390465923 -0.011584096442160477 0.05695131387029417 136 136 138 0.55 51 0 52 0 53 0 
1217 0.6898339156379591 0.049660865141055874 -0.01893372774117741 186 193 200 0.53 51 0 52 0 63 0 
1218 1.6507816271118965 0.1081441307767738 -0.09616777393797316 95 100 109 0.53 51 0 52 0 53 0 54 0 63 0 64 0 
1219 0.010994841902994157 0.01626225598834667 0.007925047438127164 127 123 116 0.73 51 0 52 0 53 0 
1220 0.8434960629989212 0.05909655576589838 -0.03558689311064356 135 126 126 0.29 51 0 52 0 53 0 64 0 
1221 -0.17846875976378654 -0.007280468197963422 0.05457230315075212 161 158 158 0.59 51 0 52 0 53 0 
1222 0.01642553616622472 0.0075877046086185035 0.027258707799735493 103 100 102 0.31 51 0 52 0 54 0 
1223 -0.7559340031308268 -0.038981009653141066 0.0869496138657273 144 141 138 0.4 51 0 52 0 53 0 54 0 
1224 -0.20174783808398794 -0.00768027248377752 0.05204727210306337 117 106 107 0.58 51 0 52 0 53 0 54 0 
1225 0.07166600341366808 0.013492950822456981 0.008886782499774482 100 94 90 0.23 51 0 52 0 54 0 
1226 0.10037204961842427 0.014855878505243877 0.011024518257739313 132 123 117 0.4 51 0 52 0 53 0 54 0 
1227 1.1011175009281164 0.07240548971388998 -0.0750552876227415 71 45 48 0.35 51 0 52 0 53 0 
1228 0.1341659440162069 0.011744926605673653 0.008702416254088963 112 105 105 1.88 51 0 52 0 53 0 54 0 
1229 0.9050328083131167 0.046975724731313326 -0.04042686467525858 75 70 77 0.27 51 0 52 0 53 0 54 0 
1230 1.1144834028427422 0.06037269024369511 -0.05765408795642579 84 80 78 0.35 51 0 52 0 53 0 
1231 1.5008458799834656 0.08081419115440418 -0.08618978560112067 124 122 124 0.29 51 0 52 0 53 0 54 0 63 0 64 0 
1232 -0.6836785023003509 -0.04165024203479813 0.07726704026192088 70 78 90 0.31 51 0 52 0 53 0 54 0 
1233 0.16299970216312204 0.008973853835860399 0.01076979859003413 103 90 89 1.33 51 0 52 0 53 0 63 0 
1234 0.19949538378757264 0.014797911329521837 -0.006210612740727095 128 125 120 0.37 51 0 52 0 53 0 
1235 -0.1740968619571234 -0.021698975981691307 0.05726781359755373 104 97 102 1.17 51 0 52 0 53 0 54 0 
1236 0.22391661027509496 0.009601877115137533 0.0013961013506906816 134 134 134 0.99 51 0 52 0 53 0 54 0 63 0 
1237 0.550791728896127 0.02373422015819808 -0.015935460053627448 63 63 77 2.67 51 0 52 0 54 0 63 0 64 0 
1238 0.09738672691528899 -0.001262190412010325 0.01357741084254771 127 116 112 0.5 51 0 52 0 53 0 54 0 
1239 -0.5433526270997042 -0.03804899289043169 0.06121447009254877 142 128 129 0.43 51 0 52 0 53 0 54 0 
1240 0.8426220567381708 0.031328243632029504 -0.034980840536351865 121 107 104 0.64 51 0 52 0 53 0 54 0 63 0 64 0 
1241 -0.5841708363027838 -0.051473170654694436 0.06040256170716418 116 101 99 0.22 51 0 52 0 53 0 
1242 -0.1536874504381892 -0.029872290973003993 0.030838113915560905 127 123 124 0.33 51 0 52 0 54 0 
1243 0.16794851776221253 -0.017293166468006785 0.009477550600390794 67 59 60 0.42 51 0 52 0 53 0 
1244 1.138546872516272 0.028695216244651586 -0.06682910749048365 120 108 104 1.01 51 0 52 0 53 0 54 0 63 0 64 0 
