# 3D point list with one line of data per point:
#   POINT3D_ID, X, Y, Z, R, G, B, ERROR, TRACK[] as (IMAGE_ID, POINT2D_IDX)
# Number of points: 460, mean track length: 4.45
2400 0.8464882780439597 -0.7432169169568209 0.0879054016125887 18 19 17 1.63 22 0 25 0 26 0 27 0 
2401 0.14679889903240478 -0.6554077002099665 0.11800332944311583 29 18 14 0.3 22 0 24 0 25 0 26 0 27 0 
2402 0.10497867490786848 -0.6424387852477058 0.12247112516122106 27 19 14 0.5 22 0 24 0 25 0 26 0 27 0 
2403 -0.4799077239033461 -0.5347743712023967 0.1755508789899516 53 36 32 0.74 22 0 25 0 26 0 27 0 29 0 
2404 -0.4350980054775015 -0.09753365547136321 0.5055465822539287 163 174 188 0.46 22 0 23 0 24 0 
2405 -1.4236427180018871 -0.4587552492087361 0.1848145738539274 109 136 152 0.49 22 0 23 0 25 0 27 0 
2406 2.2213181698206172 -0.9859243534476531 -0.012448550733971058 116 117 117 0.31 22 0 23 0 24 0 26 0 
2407 0.6763378789101491 -0.7282815279413316 0.08762641303143373 51 40 30 0.31 22 0 23 0 25 0 
2408 1.5360204858430282 -0.8540302677102467 0.03624558506019973 130 111 100 0.46 22 0 23 0 24 0 25 0 27 0 
2409 1.4432715146192647 -0.8796905752794799 0.0029467688464359953 112 126 129 1.16 22 0 24 0 25 0 
2410 -0.3787734853726825 -0.10148412162226511 0.48500727297893126 142 147 149 0.86 22 0 23 0 24 0 26 0 29 0 
2411 -0.44193900650601675 -0.08893501806198706 0.4875354607828054 155 162 176 0.83 22 0 23 0 24 0 26 0 
2412 -0.35079975106771444 -0.11115123949257946 0.4725056826913719 157 157 156 0.33 22 0 25 0 26 0 
2413 1.1060297523318292 -0.7882264433917571 0.039140028422733605 86 66 57 0.82 22 0 25 0 26 0 
2414 0.8722597759211443 -0.7793359344907137 0.021897712196206568 87 82 78 0.47 22 0 23 0 24 0 25 0 26 0 27 0 28 0 29 0 
2415 1.442851608386749 -0.8794459197517174 -0.02142531941778494 117 148 161 1.01 22 0 25 0 26 0 
2416 0.8116329854070938 -0.7659655212604124 0.022908612695329372 77 74 66 0.47 22 0 23 0 24 0 25 0 26 0 27 0 28 0 29 0 
2417 0.13093762055680125 -0.6202455088436497 0.08808050192226244 25 19 15 0.44 22 0 23 0 24 0 25 0 26 0 27 0 28 0 
2418 0.18596729918817417 -0.2228782231602263 0.3937835273475617 57 50 46 0.25 22 0 23 0 25 0 
2419 -0.6579017476356285 -0.50311867066321 0.12056160313181118 68 58 60 1.11 22 0 23 0 24 0 25 0 26 0 35 0 
2420 -1.2216925820256896 -0.4185570317653527 0.15364655865297688 139 137 141 0.72 22 0 23 0 24 0 25 0 27 0 28 0 29 0 
2421 -1.351869710317933 -0.41245536331800947 0.14505011577859545 176 197 208 0.56 22 0 23 0 25 0 27 0 
2422 -1.4050783489394316 -0.395886117255263 0.15161668680596221 170 185 195 0.5 22 0 23 0 25 0 27 0 
2423 1.8341032053379918 -0.8892113502535256 -0.021510035377606353 111 90 88 0.13 22 0 25 0 26 0 
2424 0.03988416049741578 -0.5952756029792585 0.08555198962538982 46 33 24 0.71 22 0 25 0 26 0 
2425 1.074312087462648 -0.7795617094891212 0.008322735611837136 72 58 51 1.26 22 0 25 0 26 0 27 0 
2426 0.48485997884999793 -0.6508401511552444 0.06528142550765363 32 27 22 0.38 22 0 26 0 29 0 32 0 
2427 1.3138290176669842 -0.7854935728171346 0.0005937356005944723 95 76 70 0.84 22 0 23 0 25 0 
2428 0.8783533065542612 -0.7498777729493287 -0.003161489035945814 98 100 98 0.59 22 0 23 0 24 0 25 0 26 0 27 0 28 0 29 0 
2429 0.8191595317943685 -0.7339209986703253 -0.0006049449550672427 110 109 103 0.64 22 0 23 0 24 0 25 0 26 0 27 0 28 0 29 0 
2430 0.846497991091419 -0.7509403335897892 -0.012907327057547175 33 39 35 1.02 22 0 23 0 24 0 26 0 27 0 28 0 
2431 2.194794204530481 -0.915371427644359 -0.045109201417337014 141 126 113 0.61 22 0 23 0 24 0 26 0 
2432 0.795839340692003 -0.7122203058005855 0.00891987926818726 32 36 32 1.13 22 0 23 0 24 0 25 0 
2433 1.1361477625801126 -0.6988270516521872 0.040110334877524856 158 135 113 0.32 22 0 26 0 29 0 
2434 0.8835203063204986 -0.7248510614225028 -0.019761473354142675 97 97 92 0.49 22 0 23 0 24 0 25 0 26 0 27 0 28 0 29 0 
2435 -1.1983247408357909 -0.35091853180378557 0.12199515237758865 170 194 212 0.39 22 0 23 0 24 0 25 0 27 0 28 0 29 0 
2436 -1.3401719853620064 -0.35384162382003237 0.10084405215502361 190 211 228 0.43 22 0 23 0 25 0 27 0 29 0 
2437 0.8232520024759481 -0.71154043314039 -0.02070410599224816 102 102 100 0.27 22 0 23 0 24 0 25 0 26 0 27 0 
2438 -1.437415706936905 -0.349374811808279 0.08966235460377381 143 146 155 0.55 22 0 23 0 25 0 27 0 29 0 
2439 -0.5334978034674492 -0.3930864015969186 0.10326098710118412 28 25 29 0.56 22 0 23 0 24 0 25 0 26 0 27 0 28 0 29 0 
2440 2.1152216679358116 -0.8743614816382421 -0.06582224665549208 152 135 121 0.74 22 0 23 0 26 0 
2441 2.076529767359607 -0.8764320189415079 -0.0701003475633644 142 124 112 0.41 22 0 23 0 26 0 
2442 1.1470864170302317 -0.6969146577428285 -0.008246902128274834 107 78 69 1.02 22 0 25 0 27 0 
2443 1.1634111817498733 -0.2874033117081935 0.32385995360760456 84 77 74 0.35 22 0 23 0 25 0 
2444 1.835347744100048 -0.813593940419407 -0.05577105688503731 154 142 127 0.68 22 0 23 0 25 0 
2445 -0.05250090211134802 -0.47660781885491277 0.04472893367890148 40 29 24 0.37 22 0 23 0 24 0 
2446 1.6880434870058443 -0.7699981882565257 -0.040434324855026835 139 129 116 0.34 22 0 23 0 24 0 
2447 0.18272361840028511 -0.5267535903376738 0.022168672164076902 32 23 21 0.57 22 0 23 0 24 0 25 0 26 0 27 0 29 0 35 0 
2448 0.8998855488908246 -0.6404957023861091 -0.012964148014523067 32 24 19 0.5 22 0 23 0 24 0 25 0 26 0 27 0 28 0 29 0 
2449 0.4722946526107775 -0.5594113307203769 0.009797834628414942 48 38 31 0.9 22 0 26 0 27 0 28 0 32 0 
2450 0.6339010407275727 -0.17814428566233792 0.34372239032298574 154 162 170 0.83 22 0 24 0 28 0 
2451 -0.5221838461687986 -0.35917763561033605 0.08920647396639168 52 49 50 0.36 22 0 23 0 24 0 25 0 27 0 28 0 34 0 
2452 -1.399804407943975 -0.2563461727594571 0.08928874137213054 86 72 67 0.4 22 0 23 0 25 0 27 0 29 0 
2453 -1.3421966294450647 -0.3065095965555053 0.04357612840281771 141 158 175 0.26 22 0 23 0 25 0 27 0 29 0 
2454 -1.387571813431563 -0.2899858062889046 0.0525052531592557 177 191 196 0.31 22 0 23 0 25 0 27 0 29 0 
2455 1.3875413876221667 -0.7456802802281427 -0.0741734468466623 107 96 86 0.59 22 0 23 0 25 0 
2456 1.3592619327611772 -0.7022312299741807 -0.045535370721095154 156 137 115 0.58 22 0 23 0 24 0 25 0 
2457 0.20393548893694768 -0.12944824529205437 0.32541335806509214 70 75 76 0.38 22 0 23 0 24 0 
2458 -0.3346767460896437 -0.03625874960318387 0.35054103016946586 100 100 100 0.81 22 0 23 0 24 0 27 0 
2459 1.5213187540201978 -0.7324110008973883 -0.05892635435715169 157 139 123 0.19 22 0 23 0 25 0 
2460 1.4894404572242765 -0.7202451947196814 -0.061524427982531736 97 97 94 0.73 22 0 23 0 24 0 25 0 26 0 27 0 
2461 0.1103282321407871 -0.05323640770401778 0.3651116188751507 142 148 156 0.3 22 0 23 0 26 0 
2462 -1.455794093442278 -0.2140820339011808 0.07502958565847087 151 138 133 0.47 22 0 23 0 25 0 27 0 
2463 1.296996553134395 -0.2700886383399452 0.29479887715207675 204 198 192 0.82 22 0 24 0 26 0 27 0 28 0 
2464 -0.516891362769619 -0.3230831131777152 0.06077508265435927 41 37 41 0.86 22 0 24 0 25 0 26 0 27 0 28 0 
2465 -1.3189945743531775 -0.2661276751555564 0.03008711424688249 164 194 206 0.25 22 0 23 0 25 0 27 0 29 0 
2466 0.8223637903957915 -0.5939467343241671 -0.03371083325448945 67 54 45 0.81 22 0 23 0 24 0 25 0 26 0 27 0 35 0 
2467 0.15583370498648214 -0.4685383304890028 -0.005304754149971926 31 27 25 0.85 22 0 23 0 24 0 25 0 26 0 27 0 28 0 29 0 34 0 35 0 
2468 -1.3855476411127698 -0.20461319549301774 0.0615647480745654 59 52 52 0.56 22 0 23 0 25 0 
2469 0.6359515844201367 -0.15182540031572084 0.3192108026809334 76 72 73 0.9 22 0 23 0 24 0 28 0 
2470 -0.17628863334072883 -0.39632459906522416 0.00873614589404571 37 27 20 0.72 26 0 27 0 28 0 29 0 35 0 
2471 2.2727175611757353 -0.8491309730481031 -0.1153137922561943 85 87 92 0.77 22 0 24 0 26 0 28 0 32 0 
2472 -0.20629117755743479 -0.3919920727271091 0.008295277780458318 33 24 19 0.57 26 0 27 0 28 0 29 0 35 0 
2473 2.0261078127130348 -0.802091055496414 -0.10873546966835501 146 133 122 0.51 22 0 23 0 26 0 28 0 
2474 -1.3799420646500098 -0.2376643149870919 0.010059030991655303 79 115 120 0.35 22 0 23 0 25 0 27 0 29 0 
2475 -1.323498075097763 -0.24783157834300545 0.005449014183761977 174 190 205 0.4 22 0 23 0 25 0 27 0 
2476 0.8807341594168023 -0.5878650785909474 -0.05461703920623547 50 45 40 0.35 22 0 25 0 26 0 
2477 1.3009687403996513 -0.24560317839073445 0.2821108955486465 189 180 171 0.63 23 0 24 0 25 0 28 0 
2478 -1.4905537333202425 -0.1736754286864046 0.03818031817170988 98 103 108 0.27 22 0 23 0 25 0 27 0 
2479 1.492684330809333 -0.693843476355652 -0.08700607017839379 153 137 124 0.57 22 0 24 0 25 0 26 0 27 0 
2480 1.4729720485868705 -0.7067013818770896 -0.10235413955018748 139 125 112 0.7 22 0 24 0 26 0 
2481 1.1707852804414565 -0.23858606232002863 0.2727698003977772 151 140 130 1.24 22 0 24 0 25 0 29 0 
2482 -1.396888296660559 -0.20915136539501608 0.00208893745929629 96 85 97 0.42 22 0 23 0 25 0 27 0 29 0 
2483 1.1994378833337729 -0.5886660579283933 -0.047030638867307586 112 102 93 0.9 22 0 26 0 27 0 28 0 29 0 32 0 35 0 
2484 -1.405205057964992 -0.1790001289091855 0.017730686775651518 90 72 68 0.97 22 0 23 0 25 0 29 0 
2485 2.1177216152271137 -0.7680205266825875 -0.10256778909563265 110 96 89 0.48 22 0 23 0 24 0 
2486 1.5047328503127453 -0.6652894395686559 -0.08505435339152369 152 135 128 1.56 22 0 25 0 26 0 27 0 28 0 
2487 0.9071028808046119 -0.5255649432834656 -0.02940396328299552 88 72 57 0.63 22 0 23 0 24 0 
2488 -1.15106652513834 -0.19426264177928856 0.013247348761867722 74 52 48 0.93 22 0 23 0 24 0 25 0 27 0 28 0 
2489 0.25944479038107116 -0.43700553379666485 -0.03950205942163803 55 44 39 1.06 22 0 23 0 25 0 26 0 27 0 28 0 29 0 
2490 -1.2171659210280117 -0.1708830832192247 0.020079138288993204 38 30 26 0.58 22 0 23 0 25 0 27 0 29 0 
2491 1.176243002794274 -0.22144773897652487 0.253587559227473 138 132 131 1.35 22 0 23 0 25 0 28 0 29 0 32 0 
2492 -1.4052779146664467 -0.15018251212244577 0.007488867684277537 65 63 64 0.9 22 0 23 0 25 0 27 0 
2493 2.335161894630156 -0.8065441384397876 -0.1360082587158681 77 62 40 0.46 22 0 24 0 26 0 32 0 
2494 0.6422883098502395 -0.10693674220940981 0.28084017838887904 107 105 108 0.93 22 0 23 0 26 0 32 0 
2495 -0.5009410209978584 -0.25279178599449403 0.007629400521555261 61 55 57 0.9 22 0 23 0 24 0 25 0 26 0 27 0 28 0 29 0 34 0 35 0 
2496 2.2397588581926735 -0.7951088415614105 -0.1466670866014825 88 53 49 1.49 22 0 23 0 26 0 
2497 -0.3163731927001506 0.049803690448477544 0.29129842400568645 124 123 122 0.71 22 0 23 0 26 0 27 0 
2498 1.56405467604504 -0.6621591640148891 -0.1225564885177588 154 139 126 1.45 22 0 23 0 24 0 25 0 27 0 
2499 1.3085810738024641 -0.20867192259821807 0.25894438935010994 197 199 198 1.35 22 0 24 0 26 0 28 0 32 0 
2500 1.231057943717622 -0.17040749623020596 0.27584856925065365 137 145 151 0.74 22 0 23 0 24 0 25 0 26 0 27 0 28 0 32 0 34 0 
2501 -1.3227690361017472 -0.11898594292593924 -0.0067714415116793426 153 144 141 0.41 22 0 25 0 29 0 
2502 1.7679365011174775 -0.6841225561929621 -0.12499258382150477 138 122 115 0.69 22 0 25 0 28 0 
2503 0.15629301380220106 -0.39860733991681213 -0.07127804716735767 79 70 65 0.08 22 0 23 0 25 0 
2504 0.49065289802589035 -0.4541885534017845 -0.08547093615534199 93 91 86 1.0 22 0 25 0 26 0 27 0 28 0 32 0 35 0 
2505 0.65246131015828 -0.07551757524908036 0.2729727887595726 134 137 141 0.52 22 0 26 0 27 0 29 0 
2506 -0.4958758596459205 -0.22127073224624386 -0.018277214081613254 39 31 34 0.54 22 0 23 0 24 0 25 0 26 0 27 0 28 0 29 0 35 0 
2507 0.8550928117631232 -0.4948988023864794 -0.0892913257880707 74 58 49 0.5 22 0 23 0 25 0 
2508 -0.3775642908150288 -0.24968726735644056 -0.031457052708705115 62 49 45 0.05 22 0 24 0 25 0 
2509 -0.3117307234627558 0.06963936062784218 0.276177911899296 124 128 129 0.85 22 0 25 0 26 0 27 0 
2510 -1.1252218142664532 -0.11954193962780213 -0.022401501336479817 110 92 91 0.49 22 0 23 0 25 0 27 0 29 0 
2511 2.129724353858765 -0.7313724327852001 -0.14630360728505185 74 65 72 0.9 22 0 23 0 24 0 26 0 28 0 
2512 2.1642606634840935 -0.7370865212354585 -0.16166770544205025 127 99 87 0.49 22 0 24 0 26 0 
2513 1.489560067611721 -0.6056065393396535 -0.13164175722871102 146 123 108 0.86 22 0 24 0 25 0 27 0 
2514 0.7894165444689828 -0.4738975225174147 -0.10611561425531646 93 68 55 0.9 22 0 23 0 24 0 25 0 
2515 0.5459048886061811 -0.4234555350036211 -0.09742740415030154 95 79 68 0.4 22 0 26 0 27 0 28 0 29 0 32 0 35 0 
2516 1.9257020908399085 -0.6762666528000506 -0.14694936137186668 117 101 98 0.2 22 0 23 0 26 0 
2517 1.8428087821712635 -0.6707983356984352 -0.1498960534658259 144 131 122 1.04 22 0 23 0 24 0 25 0 28 0 
2518 0.23265059021956386 -0.008268002731189513 0.2391606466521981 87 77 72 0.82 22 0 24 0 25 0 26 0 
2519 0.2547028205686424 -0.3523424628203821 -0.08454298617644938 82 69 59 0.44 22 0 23 0 24 0 25 0 26 0 27 0 28 0 29 0 
2520 0.18714208833121893 -0.34681936941434777 -0.09048800717993963 77 60 49 0.5 22 0 23 0 24 0 25 0 26 0 27 0 28 0 29 0 34 0 35 0 
2521 -1.2754347765856802 -0.0694497962691687 -0.059891790753192044 87 71 77 0.28 22 0 23 0 25 0 29 0 
2522 0.12320038621113956 0.06137866296077584 0.2646155631440843 116 114 119 1.05 22 0 25 0 26 0 27 0 32 0 
2523 -1.5514792785654206 -0.0038853374256551396 -0.04798018011784291 72 68 77 0.22 22 0 23 0 25 0 27 0 
2524 1.4602720330855796 -0.5834534058486789 -0.15388507075703073 63 45 42 0.36 22 0 23 0 25 0 26 0 
2525 -0.6732636415224375 -0.15565386312886892 -0.07215409804812795 78 74 76 0.72 22 0 23 0 24 0 34 0 
2526 1.317885598625174 -0.16772589758610087 0.21241195311491706 193 194 189 0.33 22 0 23 0 24 0 
2527 0.9186882475461178 -0.4662913648733173 -0.1385954410535348 91 73 62 0.89 22 0 23 0 26 0 27 0 
2528 0.16021419616915494 -0.31022065012829025 -0.11105841126146075 106 105 102 0.59 22 0 24 0 26 0 28 0 34 0 35 0 
2529 -1.1837315917624132 -0.06167547460625081 -0.08375314026062594 139 130 127 0.44 22 0 23 0 25 0 27 0 29 0 
2530 -1.306155401940285 -0.025009892207685 -0.07497539013579174 159 144 135 0.37 22 0 25 0 29 0 
2531 0.7218167024939769 -0.008467313547454202 0.2572259522481067 134 134 136 0.88 22 0 23 0 24 0 25 0 26 0 27 0 29 0 32 0 
2532 2.3551941520974236 -0.7313294427048405 -0.19900205495937034 83 79 57 0.61 22 0 24 0 26 0 28 0 32 0 34 0 
2533 0.6621713901324519 -0.024327868839615414 0.22169532945787612 131 134 138 1.1 22 0 23 0 24 0 25 0 26 0 27 0 28 0 29 0 32 0 34 0 
2534 0.7805409020511587 -0.06419148295271167 0.20066508955940998 126 125 119 0.26 22 0 23 0 24 0 
2535 0.5350013217307056 -0.3646966735469521 -0.13467015332038212 84 70 59 0.79 22 0 26 0 27 0 29 0 35 0 
2536 1.9278750977929666 -0.682692791930945 -0.23487129862477685 35 59 72 1.35 22 0 23 0 24 0 
2537 1.5655248027256206 -0.5660549301935358 -0.17492008883113386 57 65 67 0.62 22 0 23 0 24 0 25 0 28 0 
2538 -0.18249547144449502 -0.22162838912920169 -0.1190372325126083 60 38 33 0.61 25 0 26 0 27 0 29 0 32 0 35 0 
2539 0.14058888638794165 0.10725123236317968 0.25164807855349 159 162 170 0.68 22 0 23 0 24 0 25 0 27 0 
2540 -0.4108353281632024 -0.14310559081816307 -0.08512383304151937 79 78 76 0.8 22 0 23 0 24 0 25 0 26 0 27 0 28 0 
2541 -0.2611539080964044 -0.20855560592239264 -0.12788517343350728 30 24 22 0.9 24 0 25 0 26 0 27 0 28 0 29 0 32 0 34 0 
2542 1.1959907115959925 -0.11971524986049453 0.19085504257858263 128 123 121 0.55 22 0 24 0 25 0 
2543 1.4808972902465387 -0.5772071279013241 -0.22099922129430127 131 133 136 0.25 22 0 24 0 25 0 
2544 0.26919165986808247 -0.2939167384634917 -0.1455196899103229 33 23 21 0.5 22 0 23 0 24 0 25 0 26 0 27 0 28 0 29 0 
2545 -0.18651021071339635 -0.23050148778845525 -0.16617880698549947 54 49 45 0.37 26 0 32 0 35 0 
2546 0.9406232880360201 -0.4650201155622938 -0.2076692861935915 89 90 91 0.3 22 0 23 0 24 0 25 0 29 0 
2547 0.5396716529608842 -0.34016710129135325 -0.1541247534552578 67 51 46 0.44 22 0 26 0 27 0 29 0 32 0 35 0 
2548 -1.3425414013793302 0.03449631189437532 -0.11252080240885436 22 28 28 0.22 22 0 23 0 25 0 29 0 
2549 1.3518653105104996 -0.5033501921865874 -0.18666816365992092 58 45 50 0.32 22 0 23 0 24 0 
2550 0.878781703409352 -0.4456039296391131 -0.20830204620211376 92 96 98 0.64 22 0 23 0 25 0 26 0 28 0 
2551 0.8110782438948868 -0.4394271527863951 -0.21423280716018175 71 69 69 0.68 22 0 23 0 25 0 26 0 27 0 
2552 -0.41375311543351995 -0.11324413468624395 -0.09738568793427665 65 50 50 0.49 22 0 26 0 27 0 28 0 
2553 -0.2715745505164332 -0.3309453280190701 -0.3081366904589866 81 89 90 0.5 22 0 26 0 29 0 
2554 1.5669964660571238 -0.5234609802813025 -0.1859563715656626 51 51 48 0.79 22 0 23 0 26 0 27 0 
2555 -1.3350154458137111 0.017599066759429627 -0.1606794714662188 37 36 37 0.26 22 0 23 0 25 0 27 0 29 0 
2556 0.2021791696710062 -0.2512536859070014 -0.1566830035304208 66 54 49 0.57 22 0 23 0 24 0 27 0 28 0 34 0 
2557 -0.5789078396805012 -0.10306523841844675 -0.14897244073127525 112 103 103 0.42 22 0 23 0 24 0 25 0 
2558 -1.4261673447089034 0.06775699072127078 -0.13242774131351184 123 113 113 0.35 22 0 23 0 25 0 29 0 
2559 0.27373259066963446 -0.2694681758130784 -0.16657620838625828 35 21 19 0.56 22 0 25 0 28 0 29 0 
2560 -0.2530874457720045 -0.15966360081800074 -0.1490208170442026 49 42 35 0.75 24 0 26 0 27 0 28 0 29 0 32 0 
2561 0.5010340463011427 -0.3019839867625578 -0.16115589984476839 26 21 22 0.47 22 0 26 0 28 0 29 0 
2562 0.5454631673536419 -0.3156366705528901 -0.17252678390377976 86 71 64 0.62 22 0 26 0 27 0 28 0 32 0 35 0 
2563 2.3654383774634455 -0.6787065662207039 -0.23497550742886528 121 107 97 0.39 22 0 24 0 26 0 32 0 
2564 -0.5902541041571364 -0.09734206201978268 -0.16899284446336185 71 59 62 0.61 22 0 24 0 25 0 34 0 
2565 0.9172014540701402 -0.42211363378954614 -0.23123206500206223 110 114 116 0.76 22 0 23 0 24 0 25 0 27 0 28 0 29 0 
2566 0.8859053510022865 -0.41406334741847184 -0.23140537706889938 123 124 125 0.87 22 0 23 0 24 0 25 0 26 0 27 0 28 0 29 0 35 0 
2567 2.0592355796972033 -0.6476406477634674 -0.2697718721295313 64 67 69 1.45 22 0 24 0 26 0 
2568 1.7528471500859444 -0.5533768683783092 -0.22263071298533277 152 133 123 0.94 22 0 25 0 32 0 
2569 -0.3358448052540762 -0.08517836266935593 -0.1382728820447737 59 47 40 0.84 22 0 23 0 24 0 25 0 26 0 27 0 28 0 29 0 
2570 1.9011077685852196 -0.5779084220707755 -0.23606741289579194 95 76 72 0.84 22 0 23 0 25 0 26 0 28 0 
2571 0.27716417253708375 -0.24790120996916404 -0.19181331748124605 37 27 26 0.64 22 0 23 0 24 0 25 0 26 0 27 0 28 0 29 0 35 0 
2572 0.2611752695286265 0.10607644816304149 0.16581905824789775 95 94 92 0.36 22 0 23 0 25 0 
2573 0.5488090674623177 -0.28591606037378786 -0.1966776052200504 103 96 88 0.66 22 0 26 0 28 0 29 0 32 0 
2574 -0.33626812602142686 -0.07061785647829799 -0.1452670662859901 85 77 70 0.24 22 0 26 0 27 0 
2575 -1.163162128773157 0.025810551585378063 -0.21152310388106638 124 116 119 0.39 22 0 25 0 27 0 
2576 -0.4024738422730991 -0.05635319245195188 -0.15203170745480057 77 57 56 0.73 22 0 25 0 26 0 27 0 28 0 35 0 
2577 -1.2009325282099252 0.04119270841220039 -0.20782347912368412 141 155 168 0.57 22 0 23 0 25 0 27 0 29 0 
2578 -1.2621574526407462 0.0565669753671624 -0.20638217191393873 134 151 164 0.37 22 0 23 0 25 0 27 0 
2579 0.9122263510828892 -0.4079141102197365 -0.26234284374097955 68 81 81 0.91 22 0 24 0 25 0 28 0 
2580 -1.3119422545060524 0.07886016050393187 -0.1958491049205551 121 132 144 0.3 22 0 23 0 25 0 27 0 29 0 
2581 1.2214798023134859 -0.38590110700435976 -0.18780018094351889 144 135 121 0.56 22 0 26 0 29 0 
2582 0.954776105127301 -0.3955557061424277 -0.2500928687157643 116 121 125 0.62 22 0 23 0 24 0 25 0 26 0 27 0 28 0 
2583 -0.322143232826732 0.19425171199000993 0.10436064247632515 103 108 108 1.45 22 0 25 0 27 0 
2584 0.267204159909569 0.1287601974644425 0.15427087233700676 82 79 71 0.53 22 0 25 0 26 0 27 0 
2585 -0.3685157031273333 -0.04320472565833997 -0.15762866911809437 97 94 90 0.54 22 0 23 0 24 0 25 0 26 0 27 0 28 0 
2586 0.48617837689481397 -0.2591449390187912 -0.22040578027434363 28 26 27 1.11 24 0 25 0 26 0 28 0 32 0 
2587 0.28592647871732624 -0.2122950829143536 -0.20631591973925764 40 24 21 0.86 22 0 23 0 24 0 25 0 26 0 27 0 28 0 29 0 
2588 0.923846602446279 -0.37553258570517456 -0.25313130621018926 71 83 82 0.94 22 0 24 0 26 0 27 0 29 0 
2589 2.0042143899425775 -0.5973663955634277 -0.29128903217878216 99 90 97 0.31 22 0 24 0 26 0 
2590 -1.2017186157536373 0.06834947532448042 -0.2323455720134024 105 129 142 0.31 22 0 23 0 25 0 
2591 2.2218423547155415 -0.6011266941712826 -0.255387452643484 93 72 69 0.31 22 0 24 0 26 0 
2592 1.2659100884267083 -0.3708797726020409 -0.1992242515648544 97 81 71 1.29 22 0 26 0 27 0 28 0 29 0 35 0 
2593 0.2886033327230655 -0.19643612456491163 -0.2185568270412376 64 49 41 0.47 22 0 23 0 25 0 26 0 27 0 28 0 29 0 
2594 0.8616106810621644 -0.3490620067853683 -0.27221937239869287 133 135 135 0.72 22 0 24 0 25 0 26 0 27 0 
2595 0.250728384782822 -0.17641798334416156 -0.21441626477101097 81 69 65 0.66 22 0 24 0 26 0 27 0 29 0 
2596 0.13412601697508975 -0.15489368961868386 -0.21703142448624266 93 79 69 0.73 22 0 23 0 24 0 25 0 26 0 32 0 34 0 35 0 
2597 -0.37206603356751033 0.3260835001675559 0.19621073072717568 128 129 137 0.78 22 0 23 0 24 0 26 0 28 0 29 0 
2598 2.0702664464179366 -0.5992876714106858 -0.30971677241581874 43 38 35 0.99 22 0 24 0 26 0 
2599 -0.44074640906102786 0.011857288873768097 -0.17076417150906367 49 36 36 0.58 22 0 25 0 26 0 27 0 28 0 
2600 0.2913258890537556 -0.18538019869643044 -0.22820764126696177 52 39 33 0.51 22 0 23 0 25 0 26 0 28 0 29 0 
2601 -0.13184848026407905 -0.12696329225938954 -0.2558770988211579 105 111 119 0.41 26 0 27 0 32 0 
2602 -1.186074070111641 0.10093602570583599 -0.24761767875278054 169 181 196 0.41 22 0 23 0 25 0 27 0 29 0 
2603 -1.2487097707872108 0.11497140314718562 -0.2459277581729713 150 167 179 0.44 22 0 23 0 25 0 27 0 29 0 
2604 -1.2983348860037385 0.13757050707801421 -0.2352581089876051 142 152 164 0.29 22 0 25 0 27 0 29 0 
2605 2.2366358714747547 -0.5913395329621084 -0.28402718410095823 99 78 73 0.51 22 0 23 0 26 0 32 0 
2606 1.9124802710303672 -0.5276946918055665 -0.28038207196558695 132 112 108 0.53 22 0 24 0 25 0 26 0 
2607 0.536797722390246 -0.2236995617441286 -0.23487377899636813 67 54 49 0.55 22 0 26 0 28 0 29 0 35 0 
2608 -0.39687651279727654 0.013261613448587535 -0.18675730805422297 83 76 74 0.77 22 0 23 0 24 0 25 0 26 0 27 0 28 0 29 0 
2609 2.2930976501279887 -0.5861600144850846 -0.2747829871142054 89 79 79 0.44 22 0 24 0 26 0 
2610 1.6406480197288296 -0.45153071862376615 -0.26326431781623016 113 91 84 1.21 22 0 23 0 25 0 
2611 0.25469579168292555 -0.15361371918786135 -0.22897597041553425 72 57 51 0.57 22 0 24 0 25 0 26 0 27 0 
2612 0.17317835250831762 -0.13543322002391103 -0.23287343967745422 63 57 53 0.88 22 0 23 0 24 0 25 0 26 0 27 0 32 0 34 0 
2613 -0.4792937014722527 0.010899586346670348 -0.21625950365615992 38 39 46 0.37 22 0 23 0 25 0 32 0 
2614 0.9367333090911216 -0.3604481980300574 -0.3118746172649312 63 73 73 0.72 22 0 25 0 26 0 
2615 0.1645176102137905 0.23624765350560994 0.16561396013477664 116 118 127 0.28 22 0 25 0 27 0 
2616 0.966599568483283 -0.3385258926355896 -0.29315797011650613 126 134 138 0.52 22 0 23 0 24 0 25 0 26 0 28 0 29 0 
2617 0.9237599153822607 -0.34591329696316275 -0.31190271063802366 81 97 98 0.51 22 0 24 0 25 0 27 0 28 0 
2618 0.9026364825266234 -0.3272958454652173 -0.29529749727354654 109 120 124 0.75 22 0 24 0 25 0 26 0 27 0 28 0 34 0 35 0 
2619 0.29712800104558296 -0.16198981659608608 -0.2483752327143268 35 19 17 0.44 22 0 24 0 26 0 27 0 
2620 -0.5731773653535241 0.010173500396991133 -0.2561700828045089 62 59 65 0.57 22 0 24 0 25 0 
2621 2.022625510971129 -0.5760898789911836 -0.33944500599220745 16 16 14 0.44 22 0 23 0 26 0 
2622 1.8057851244652487 -0.4701843706090133 -0.26559399483539586 136 122 113 1.3 22 0 23 0 24 0 25 0 28 0 32 0 
2623 0.13116716271625367 -0.1172808365830144 -0.2408726238870812 84 70 62 0.45 22 0 23 0 24 0 25 0 26 0 32 0 34 0 35 0 
2624 0.2794509627511719 0.17851076042066005 0.12288666736365837 85 80 75 0.71 22 0 24 0 25 0 26 0 27 0 28 0 
2625 -1.241080207165901 0.14542690417970455 -0.26834522477846307 107 141 154 0.43 22 0 25 0 27 0 29 0 
2626 -0.4604335753380068 0.03285599372237293 -0.21458291246202288 28 29 34 0.53 22 0 23 0 25 0 26 0 27 0 
2627 -0.392149731069678 0.033681147127223254 -0.21106453482385665 66 55 53 0.69 22 0 23 0 24 0 25 0 26 0 27 0 28 0 29 0 
2628 2.354980020367318 -0.5887816413329027 -0.300588683115671 125 94 86 0.42 22 0 24 0 28 0 
2629 0.8170252336557993 -0.25656051145573855 -0.26055693103333594 86 69 60 0.6 22 0 23 0 24 0 25 0 26 0 
2630 0.2996598605089819 -0.14797158014691147 -0.25526540851755725 35 20 17 0.35 22 0 26 0 27 0 
2631 0.9318638519848319 -0.3307871830206538 -0.3226421373473028 76 91 91 0.3 22 0 23 0 24 0 
2632 1.7844349462229354 -0.45528952751727214 -0.2847468378128692 132 120 115 0.52 22 0 24 0 25 0 28 0 
2633 0.09705137845642525 -0.08217166853013183 -0.2511953932696338 83 68 62 0.15 22 0 24 0 25 0 
2634 0.26326098814357185 -0.1174499979058366 -0.2621361244735938 98 86 77 0.85 22 0 23 0 24 0 25 0 26 0 27 0 28 0 29 0 34 0 
2635 -0.5443289344536906 0.058420525864898834 -0.2586527915069984 80 79 88 0.77 22 0 23 0 24 0 25 0 26 0 32 0 34 0 35 0 
2636 -0.23706354650941613 0.3276733638157372 0.12796681128056678 108 111 116 1.44 24 0 25 0 26 0 27 0 34 0 
2637 -1.229020043820196 0.17627254399795605 -0.2875369585356895 163 179 199 0.28 22 0 23 0 25 0 27 0 29 0 
2638 -1.3055221833260175 0.19214189072574642 -0.2889361214266309 142 150 162 0.27 22 0 23 0 25 0 27 0 29 0 
2639 1.2553611383972898 -0.31014605889552505 -0.24712153871344922 86 70 65 0.54 22 0 26 0 27 0 28 0 29 0 32 0 
2640 0.9723330501167495 -0.30806023037631874 -0.3137771383109404 132 139 145 0.53 22 0 23 0 24 0 25 0 26 0 27 0 28 0 29 0 
2641 -1.515676604647455 0.2736967843023093 -0.2550208967901445 145 133 132 0.2 22 0 25 0 29 0 
2642 0.30168871128020625 -0.13304590576512115 -0.2709883036207814 40 27 25 0.83 22 0 23 0 24 0 25 0 26 0 27 0 28 0 29 0 35 0 
2643 -0.39042834374253604 0.05771294246700799 -0.22866166684203604 51 46 47 0.51 22 0 23 0 24 0 25 0 26 0 27 0 28 0 29 0 
2644 0.7133297305871857 0.1560618305013743 0.14166456643862887 125 126 128 0.97 22 0 23 0 24 0 26 0 28 0 32 0 
2645 -0.24495107988829742 0.33070706911214426 0.10490910030097685 67 65 66 0.76 22 0 26 0 28 0 29 0 
2646 0.8039217868098288 -0.22552055661363726 -0.2752145907671878 66 60 56 0.68 22 0 23 0 24 0 26 0 35 0 
2647 0.7637282604171065 -0.21474164817511449 -0.2733587145258774 56 50 49 0.44 22 0 23 0 25 0 
2648 2.1406098382778342 -0.5146782372711155 -0.3105596814290791 49 54 53 0.17 22 0 23 0 26 0 
2649 0.8238873788641737 0.10042952473734436 0.10099553651485461 117 104 99 1.05 22 0 24 0 26 0 27 0 
2650 0.3035365821052391 -0.11717119872556646 -0.2868826231752328 57 49 48 0.63 22 0 25 0 26 0 35 0 
2651 0.2668553284762726 -0.09919427225676515 -0.2730002201660624 106 98 90 1.1 22 0 23 0 24 0 25 0 26 0 28 0 29 0 35 0 
2652 0.049855342918596314 -0.04642123672019011 -0.2664324466034564 68 56 54 0.69 22 0 23 0 24 0 34 0 
2653 1.757801249463016 -0.4247671967659704 -0.30028088937603103 82 80 80 0.58 22 0 23 0 24 0 25 0 26 0 28 0 
2654 -0.447341522039043 0.09055089786325118 -0.25288509668674114 29 27 33 0.26 22 0 23 0 24 0 27 0 
2655 1.9213087234528226 -0.457659755141717 -0.3132893331540583 70 45 44 0.52 22 0 23 0 24 0 25 0 26 0 28 0 
2656 0.8460341888939443 -0.2213748760911467 -0.29047938849164884 71 52 47 0.37 22 0 26 0 35 0 
2657 -0.3557656649749556 0.4123980344541031 0.1348850927686139 140 141 151 0.49 22 0 23 0 24 0 
2658 0.5774164804307846 -0.15661496554746218 -0.285436875367411 116 106 98 0.76 22 0 26 0 32 0 35 0 
2659 -0.29987301375606606 0.07620014256895181 -0.24422946112927094 76 58 51 0.67 22 0 23 0 24 0 25 0 26 0 27 0 28 0 29 0 
2660 1.6017919340343947 -0.3951507187013336 -0.32300858816035966 35 31 30 1.35 22 0 24 0 25 0 34 0 
2661 -1.4603068910330328 0.3171246687100592 -0.27899458449056597 66 76 80 0.62 22 0 23 0 25 0 27 0 29 0 
2662 1.6524174489009475 -0.38376970276332223 -0.3091913184332257 117 98 89 0.59 22 0 24 0 26 0 
2663 0.315952340928543 -0.08652773135720915 -0.2875104290506724 64 51 48 0.29 22 0 23 0 24 0 
2664 0.8050484280017749 0.17012316962783772 0.13655802161452718 156 158 157 0.42 22 0 23 0 25 0 26 0 28 0 
2665 -1.2855672174921429 0.2824315027403501 -0.279607601650285 24 28 29 0.46 22 0 23 0 25 0 27 0 
2666 -1.169401617768838 0.21035761186488142 -0.3464870300286238 153 165 179 0.59 22 0 23 0 25 0 27 0 29 0 
2667 -1.225944657057308 0.2268429668348091 -0.3415993667243685 149 160 175 0.33 22 0 23 0 25 0 27 0 29 0 
2668 -1.2869698419488418 0.2411120004755644 -0.3405044180048373 149 156 165 0.39 22 0 23 0 25 0 27 0 29 0 
2669 2.248385214667791 -0.5063948089176554 -0.32495476979906934 114 76 65 0.25 22 0 23 0 26 0 
2670 1.758596779565637 -0.37968398939102393 -0.29027865574413353 131 101 88 1.19 22 0 23 0 25 0 
2671 1.7352344721928243 -0.40443792888629737 -0.3250638301169899 110 87 76 0.34 22 0 23 0 26 0 
2672 1.253745124474317 -0.2623826238043493 -0.271641429537988 107 92 86 1.06 22 0 26 0 27 0 28 0 29 0 32 0 
2673 -1.471088907173093 0.34857125537496275 -0.2876096393135037 132 113 110 0.26 22 0 25 0 27 0 29 0 
2674 0.9514719163674742 -0.2527125473686817 -0.36855022476217325 125 129 131 1.37 22 0 23 0 24 0 25 0 26 0 27 0 28 0 29 0 35 0 
2675 1.5773179730212017 -0.3768345774293651 -0.3640575300207285 87 90 97 0.93 22 0 23 0 24 0 25 0 26 0 27 0 34 0 
2676 1.4220256654817554 -0.36349624266049646 -0.3850718545934951 184 185 187 0.49 22 0 23 0 24 0 
2677 -0.28834418815576873 0.11902390908297826 -0.265483746164362 87 77 71 0.83 22 0 23 0 24 0 25 0 26 0 27 0 28 0 
2678 -1.2161827026049774 0.25868784121583205 -0.35996836561139234 121 147 158 0.47 22 0 25 0 27 0 29 0 
2679 2.147305581348673 -0.46514823233170816 -0.33896135888355394 82 90 90 0.28 22 0 26 0 32 0 
2680 1.862108082542698 -0.40678870726558175 -0.3388261984026443 128 111 107 0.54 22 0 25 0 26 0 32 0 
2681 1.6992392508191314 -0.3690778958837109 -0.33327846859016397 140 124 111 0.3 22 0 23 0 25 0 
2682 0.2878876051485817 -0.07635358822610197 -0.35211946239424896 104 96 89 0.46 22 0 25 0 27 0 
2683 -0.4098990629273467 0.15733278262569303 -0.2712196725899225 39 28 30 0.81 22 0 24 0 26 0 27 0 
2684 2.323300133012383 -0.4964892714780121 -0.34143090431087536 97 69 65 0.21 22 0 24 0 26 0 
2685 0.8326606693275362 0.1442298190498226 0.05670340975877386 109 101 95 0.53 22 0 23 0 26 0 
2686 2.2784963761308994 -0.491194639449879 -0.3498844636362179 78 78 77 0.72 22 0 24 0 26 0 28 0 32 0 34 0 
2687 -0.35406912135793667 0.1325665750883847 -0.2899535451206747 81 71 66 0.59 22 0 23 0 24 0 25 0 26 0 28 0 
2688 1.7058747990789553 -0.35928154950343827 -0.3434713215658484 132 118 108 0.37 22 0 24 0 26 0 
2689 0.8569676998715212 -0.21636280912871628 -0.39529730737362423 100 111 113 0.81 22 0 25 0 27 0 
2690 -1.2753494081426557 0.2943084683322147 -0.38126603747014337 61 84 90 0.41 22 0 23 0 25 0 27 0 29 0 
2691 0.9262557162099601 -0.21794279318429824 -0.3824246406458084 142 152 155 0.57 22 0 23 0 24 0 25 0 26 0 29 0 35 0 
2692 0.2831852975732422 -0.02344069569726798 -0.3250161033643494 107 93 87 0.65 22 0 23 0 24 0 25 0 26 0 27 0 28 0 29 0 35 0 
2693 -1.15191951502962 0.2676797049508901 -0.38261202164797325 115 138 151 0.21 22 0 25 0 27 0 29 0 
2694 -1.2093565281966554 0.28534927620001516 -0.3780336286697389 130 151 163 0.46 22 0 23 0 25 0 27 0 29 0 
2695 0.3234681426141465 -0.0360760498930131 -0.3344490236702333 41 23 21 0.54 22 0 24 0 25 0 26 0 27 0 28 0 29 0 
2696 1.9340653784869948 -0.40957126764162005 -0.3682600997679931 125 111 106 0.6 22 0 23 0 24 0 
2697 2.0644085205174467 -0.46554874888646064 -0.40530186891452386 137 143 152 0.73 22 0 24 0 26 0 28 0 
2698 1.9996274025238021 -0.44788856923719284 -0.40249078486376805 107 141 158 0.39 22 0 23 0 26 0 
2699 0.8249277463287337 -0.13871284788464466 -0.3438423491212552 93 76 67 0.55 22 0 23 0 24 0 25 0 34 0 
2700 0.1816050598278627 0.34056177311835745 0.08064717837425867 120 128 137 0.36 25 0 27 0 28 0 
2701 -0.23713890783599678 0.41445149239944673 0.029184145815364437 61 60 66 0.69 22 0 23 0 24 0 25 0 
2702 -1.2684728864736463 0.33483885753335824 -0.3735252725638256 48 39 43 0.43 22 0 23 0 25 0 27 0 
2703 0.18825573788094135 0.3571130579575974 0.08012134096338377 114 115 124 0.6 22 0 23 0 25 0 26 0 27 0 29 0 
2704 -1.2748209216964626 0.3692403872947366 -0.34281712467162817 116 120 118 0.62 22 0 23 0 25 0 27 0 29 0 
2705 1.3764095954225242 -0.3160554443371438 -0.4225548407104696 100 68 57 0.25 22 0 23 0 24 0 
2706 0.280196199152605 0.003986063622087445 -0.3391443710547508 45 43 42 0.88 22 0 23 0 24 0 25 0 26 0 27 0 29 0 34 0 35 0 
2707 1.6583811062033438 -0.31990049947846305 -0.35797135462818636 65 60 60 0.46 22 0 23 0 24 0 25 0 26 0 28 0 
2708 1.616510173122917 -0.3087345853338089 -0.357183890343197 36 31 29 0.87 22 0 23 0 24 0 25 0 28 0 
2709 0.9603734251794511 -0.21066280906424387 -0.4263019243422848 95 107 107 0.78 22 0 23 0 24 0 25 0 27 0 28 0 29 0 
2710 0.9323174487339424 -0.18484438536204462 -0.4039871401428941 130 138 141 0.51 22 0 23 0 24 0 25 0 26 0 27 0 35 0 
2711 0.8491122453431513 0.1996242248866184 0.03725732760642645 92 83 78 0.86 22 0 24 0 28 0 
2712 -0.14253950211223987 0.5177014752279072 0.1337903848329624 51 62 78 0.48 22 0 23 0 24 0 25 0 
2713 0.8636296992417302 -0.1388792654351159 -0.39214613821245786 85 69 65 0.8 22 0 23 0 24 0 26 0 27 0 
2714 1.7864124734412206 -0.3048767267050365 -0.3459024538536423 141 132 122 1.24 22 0 23 0 25 0 26 0 28 0 
2715 -0.14376700161309128 0.5332188372366895 0.14100899634879402 57 71 92 0.59 22 0 23 0 24 0 25 0 26 0 
2716 2.1607505295744276 -0.4108795507503728 -0.38392835482000265 53 44 39 0.52 22 0 24 0 26 0 
2717 1.7581118946601482 -0.3189884543921789 -0.37557234215499463 114 102 93 0.99 22 0 24 0 25 0 26 0 28 0 
2718 0.381496053558494 0.38626341831158123 0.1151050655437958 51 59 69 0.6 22 0 23 0 24 0 26 0 
2719 2.1500439691595044 -0.4282824873002727 -0.4283407951481341 70 63 65 0.52 22 0 23 0 24 0 26 0 28 0 
2720 0.8481092021391679 -0.10767456489362442 -0.38454384692664945 121 106 93 0.34 22 0 23 0 24 0 
2721 0.1751441804885581 0.07202601841161418 -0.3747547175380899 91 78 71 0.73 22 0 24 0 34 0 
2722 0.7181596056066127 0.25856510639017705 0.03406307576015849 125 121 122 1.13 22 0 24 0 26 0 27 0 28 0 29 0 
2723 0.7315345976857137 0.2773754960546579 0.04442880221613907 129 130 136 0.38 22 0 23 0 24 0 
2724 1.7462188405176566 -0.28091879836749994 -0.3908050319152407 128 111 100 0.5 22 0 26 0 28 0 
2725 1.7826316431365292 -0.2908355206981531 -0.39815562321805853 123 117 108 0.48 22 0 26 0 28 0 
2726 -0.2558927662588707 0.24499493617897403 -0.3441279877879628 80 60 48 1.02 22 0 25 0 26 0 27 0 29 0 
2727 -0.18585001655795447 0.5183358397345551 0.042932163345656194 30 22 24 1.26 22 0 23 0 24 0 25 0 26 0 
2728 1.4212792017753086 0.08008342923539374 -0.013216663237814891 43 39 36 1.57 22 0 25 0 26 0 
2729 -0.39040660106579045 0.2740248309146629 -0.37804983706202105 45 47 52 0.4 22 0 25 0 26 0 
2730 -0.17762474010814383 0.5902116950334712 0.11032779859255731 23 19 23 1.56 22 0 23 0 24 0 25 0 26 0 
2731 2.105744183518504 -0.3532472055788213 -0.4194706079819656 41 27 20 1.06 22 0 23 0 24 0 
2732 0.8586148157851777 0.25196146296638605 0.015113549251792237 125 116 105 0.52 24 0 26 0 29 0 
2733 2.215022003887709 -0.3666615705494679 -0.42012242608967154 121 100 91 0.54 22 0 23 0 24 0 26 0 
2734 0.18830562325175604 0.44822047319971053 0.02371126847299304 122 110 102 0.5 22 0 25 0 29 0 
2735 -0.545207198484399 0.6210530697022356 -0.006573170138908286 27 32 42 1.17 22 0 23 0 25 0 28 0 
2736 0.7169176331931917 0.31467617704317513 0.0003647851603194507 113 109 111 1.29 22 0 23 0 24 0 25 0 26 0 27 0 
2737 -0.4116649722183349 0.320994901012074 -0.4088474533982237 32 39 51 0.9 22 0 26 0 35 0 
2738 -0.5096891222453592 0.6612989379395972 0.026497118115134013 103 100 105 1.01 22 0 23 0 25 0 29 0 
2739 -0.10943232663987393 0.7339472951353999 0.2732464562676519 19 19 20 1.11 25 0 26 0 27 0 28 0 
2740 1.1571220442474022 -0.07535805440753024 -0.43574302816393334 81 63 52 0.58 25 0 26 0 27 0 28 0 29 0 
2741 -0.14554905881967523 0.5674357596660835 0.0016515488125095979 31 30 31 0.52 22 0 23 0 24 0 25 0 26 0 27 0 
2742 0.7329040731829204 0.3379450848640154 -0.007869941568805144 110 111 112 0.37 22 0 23 0 24 0 
2743 2.15608275570275 -0.32053708413748594 -0.4555826514354718 142 131 120 0.44 22 0 23 0 24 0 
2744 -0.5705132820247663 0.6881537554188716 -0.024058610049695194 22 24 19 1.89 22 0 23 0 25 0 27 0 29 0 
2745 0.3485237222722495 0.5695488508335259 0.15878793547627193 42 44 48 0.91 22 0 23 0 24 0 
2746 -0.5260216814583479 0.668503157742089 -0.03768393469236007 18 18 18 0.82 22 0 23 0 25 0 27 0 28 0 29 0 
2747 2.1971771337859534 -0.30180224824515894 -0.42836629111108404 140 116 105 0.73 22 0 23 0 24 0 
2748 0.3828815112140266 0.42018230678127233 -0.04595003939855192 32 33 39 0.56 22 0 23 0 24 0 
2749 0.7112893742315262 0.3487646650162079 -0.0199163438289002 95 84 78 0.97 22 0 25 0 27 0 
2750 0.385557801658768 0.48884213064399645 0.048598312561280915 33 33 34 1.3 22 0 23 0 24 0 
2751 1.3981029522311874 0.18082892952880528 -0.012967953678290832 115 113 108 0.99 22 0 23 0 24 0 25 0 26 0 27 0 28 0 
2752 2.2473518746318653 -0.3340977826292026 -0.4793529715125825 111 86 79 1.28 22 0 23 0 24 0 
2753 0.13854291623433226 0.5727724404732099 0.05104083185712017 40 41 46 0.76 22 0 23 0 24 0 25 0 
2754 0.09603915194787971 0.5671009674884854 0.028655790489335024 30 26 31 0.76 22 0 23 0 24 0 25 0 
2755 0.15098458620727015 0.5544506077131525 0.027575677266954014 41 35 40 1.09 22 0 23 0 24 0 25 0 
2756 1.4559517938889495 0.16348267461988245 -0.0401158593596295 30 32 36 0.82 22 0 25 0 28 0 
2757 2.059419729090129 -0.25924945489580864 -0.4610520032560612 116 95 81 0.76 22 0 23 0 24 0 
2758 2.3150274895938097 -0.32099558015518365 -0.46254038689035565 96 58 52 0.29 22 0 24 0 26 0 
2759 0.7189581940420366 0.422688842162655 0.050855878113524995 64 66 69 1.06 22 0 23 0 24 0 25 0 26 0 27 0 
2760 -0.1451041224997408 0.706637167721268 0.11393561235204135 31 33 40 1.64 22 0 23 0 24 0 25 0 26 0 
2761 -0.10808727233913556 0.6772901377898909 0.060488541110913605 32 36 45 0.29 22 0 23 0 24 0 26 0 
2762 1.484108514642479 0.21179771496189745 0.005583776920285431 60 47 42 1.19 22 0 23 0 25 0 26 0 28 0 
2763 -0.13241469820430246 0.7005759183061369 0.06912656011331203 54 59 68 1.74 22 0 24 0 25 0 26 0 
2764 -0.10428404554816689 0.6962522579331941 0.07158999643828794 31 39 46 0.4 22 0 23 0 24 0 25 0 26 0 
2765 -0.10510501363732054 0.7132306731702597 0.07467010121869508 36 35 38 0.67 22 0 24 0 26 0 
2766 0.5031365172791706 0.5142430457385974 0.018794476238411382 107 97 99 0.88 22 0 23 0 24 0 25 0 26 0 27 0 28 0 29 0 
2767 0.18595743162539471 0.6296315396009361 0.061701323679150426 26 26 32 0.34 22 0 23 0 24 0 26 0 
2768 2.3781119146162673 -0.3041367083870294 -0.4882509781791105 136 86 65 0.32 22 0 24 0 26 0 
2769 1.0158007008299466 0.329895325000125 -0.04238217702042874 89 73 72 1.31 22 0 24 0 25 0 26 0 28 0 
2770 0.7023777036073897 0.49525862444248053 0.06234709225337034 42 42 46 0.72 22 0 23 0 24 0 
2771 0.18300559750694886 0.6764265894995825 0.110443658597381 37 32 37 0.98 22 0 23 0 24 0 25 0 26 0 27 0 
2772 -0.09604387892315187 0.749691173675151 0.10141824846714675 36 42 52 0.5 22 0 23 0 24 0 25 0 26 0 27 0 28 0 
2773 0.7126102648524897 0.4790258169484215 0.03185860287068709 42 47 54 0.5 22 0 23 0 24 0 25 0 
2774 0.19600528864680178 0.6568625327545093 0.07812947798467353 63 64 73 0.55 22 0 23 0 24 0 25 0 26 0 27 0 28 0 29 0 
2775 -0.09242085356240277 0.7656597685441393 0.11478362488469951 49 49 64 0.57 22 0 23 0 25 0 26 0 27 0 
2776 -0.03509369958181539 0.7174161211136031 0.05560255635140867 78 77 86 0.63 22 0 23 0 24 0 25 0 26 0 27 0 28 0 29 0 32 0 
2777 -0.08762394668046734 0.8108669333274384 0.17862888941769753 54 54 61 0.83 22 0 25 0 26 0 27 0 
2778 0.1982857554616745 0.6646765995235552 0.04934166861188532 61 53 55 0.45 22 0 23 0 24 0 25 0 26 0 
2779 -0.08128422826140556 0.8046199916453908 0.13794984261468843 36 37 39 0.25 22 0 23 0 25 0 26 0 
2780 1.518383838030781 0.2181634527733074 -0.0722143583975121 25 23 24 0.36 22 0 23 0 24 0 25 0 26 0 
2781 1.096229496317517 0.3833516446486787 0.006582750118213858 104 94 95 0.5 22 0 23 0 24 0 25 0 26 0 27 0 28 0 29 0 
2782 0.22385618858668765 0.7599538730891772 0.2000695977958691 58 43 50 0.46 22 0 23 0 24 0 
2783 0.2187598589361145 0.7691888495388649 0.21459289127325953 48 51 56 1.06 22 0 23 0 24 0 25 0 26 0 27 0 29 0 
2784 -0.08138420074749346 0.8182257420067737 0.15252510528889665 25 25 29 0.22 22 0 23 0 25 0 26 0 27 0 
2785 -0.0737260389900012 0.8305789305102699 0.17428299740553266 33 33 35 0.67 22 0 23 0 25 0 26 0 
2786 -0.07985581277426185 0.8389254222335818 0.1818257885463995 42 45 50 0.41 22 0 25 0 28 0 
2787 0.2972538991846626 0.7014633609542686 0.10847885507959314 106 93 97 0.7 22 0 24 0 25 0 26 0 27 0 28 0 29 0 
2788 -0.07214146332075318 0.8614789191738327 0.1956993454998584 21 21 27 0.77 22 0 23 0 25 0 32 0 
2789 0.4516914319449408 0.7169845604410028 0.2054772925047115 54 56 60 0.32 22 0 23 0 24 0 25 0 
2790 1.6545990231266388 0.3293036648012241 0.10966994788429388 12 18 16 0.26 22 0 23 0 26 0 
2791 1.6196756716036025 0.3218100286796269 0.07579497476977066 22 31 24 1.41 22 0 23 0 24 0 28 0 
2792 1.3899279288303488 0.3337676080858491 -0.006942528746489331 64 53 52 0.26 22 0 23 0 24 0 25 0 26 0 
2793 0.8162281540906773 0.5319823391066038 0.04336769633448234 60 48 47 0.74 22 0 23 0 24 0 25 0 26 0 27 0 28 0 29 0 
2794 -0.06575257880386574 0.8821884134949067 0.18381939268943234 49 39 41 0.77 22 0 23 0 25 0 28 0 29 0 32 0 
2795 1.996786606414369 0.13187540697019137 -0.08772203515842941 45 45 43 0.41 22 0 23 0 24 0 26 0 28 0 
2796 0.24916562664469047 0.749632528547331 0.10885521978203186 11 10 9 0.48 22 0 23 0 24 0 25 0 27 0 
2797 0.8208203563165147 0.5580849866400316 0.05476529211867937 102 90 92 1.29 22 0 23 0 24 0 25 0 28 0 
2798 1.9891104539303328 0.209821620339239 0.011018903286056309 68 78 21 0.33 22 0 23 0 24 0 26 0 
2799 1.9162304154612995 0.22520063554281644 0.005124218561841839 53 56 45 0.55 22 0 23 0 24 0 26 0 28 0 
2800 1.4731857884628974 0.31849879537112286 -0.04003351208996287 86 79 81 1.07 22 0 24 0 25 0 26 0 28 0 
2801 0.7490466266090149 0.6563545722963497 0.17068117846554215 24 25 30 0.99 22 0 24 0 25 0 
2802 0.8893886845466923 0.5687284087495144 0.0952864715333192 105 95 98 0.7 22 0 23 0 24 0 25 0 26 0 27 0 28 0 32 0 
2803 2.174424790529688 0.09603488858001893 -0.10954697666585521 76 65 68 0.76 22 0 24 0 26 0 
2804 1.5758153995027635 0.3477607120906318 0.03743275582824586 21 21 20 0.64 22 0 24 0 25 0 26 0 28 0 32 0 34 0 
2805 0.5436557639725558 0.8070090371964744 0.2505959646713051 70 64 62 1.45 22 0 24 0 28 0 
2806 2.1382765534590145 0.1577877666587062 -0.07705376959573909 95 106 80 0.51 22 0 24 0 26 0 
2807 1.1798902396861866 0.5184010859294435 0.0799246276244738 65 47 46 0.59 22 0 23 0 24 0 25 0 26 0 27 0 28 0 
2808 1.9268309241718127 0.3022378214987308 0.06421927844205823 78 101 66 1.32 22 0 23 0 24 0 26 0 34 0 
2809 1.2513190697252248 0.5018377860400777 0.07740334987556485 51 45 46 0.68 22 0 24 0 25 0 26 0 27 0 28 0 
2810 1.4860014807398287 0.4387714808819462 0.08474079557636068 123 110 110 0.4 22 0 23 0 24 0 25 0 26 0 28 0 32 0 
2811 1.9124902798727488 0.3084390290206122 0.05375294381843028 95 113 84 0.43 22 0 23 0 26 0 32 0 
2812 1.9871436112117133 0.31150379662518424 0.08063582254126139 62 82 52 0.68 22 0 23 0 24 0 26 0 
2813 1.4538275441384778 0.46141774078560205 0.07538413123545691 69 56 55 0.49 22 0 24 0 25 0 26 0 
2814 1.476883271355275 0.4591110968724205 0.07288254103466053 68 53 53 0.69 22 0 23 0 24 0 25 0 26 0 
2815 1.9305731243424415 0.33155114191523716 0.06096325808106731 45 57 36 0.61 22 0 23 0 24 0 
2816 1.6373408625472377 0.4203117055197112 0.0661606282513066 65 59 54 0.48 22 0 23 0 24 0 25 0 26 0 
2817 1.2310049819682152 0.5890175518341823 0.1570701946122621 93 63 59 1.34 22 0 24 0 26 0 
2818 2.003553628730241 0.33861442746872294 0.0798714669895025 97 107 63 0.57 22 0 24 0 26 0 
2819 1.171506658040478 0.6606217459545289 0.2257270483533429 103 55 50 0.95 22 0 23 0 24 0 25 0 26 0 27 0 28 0 
2820 1.898529440675476 0.3637244418275968 0.05676780622505487 118 110 103 0.2 22 0 23 0 24 0 26 0 
2821 1.986403557099249 0.347452508809231 0.06228180452869092 27 30 27 0.32 22 0 23 0 24 0 
2822 1.5856106099552656 0.5062771621819422 0.13857597180519224 95 74 72 0.52 22 0 23 0 24 0 
2823 2.0490404252291547 0.34354021258805045 0.07551190479404699 90 82 56 0.86 22 0 23 0 24 0 
2824 1.6858204947169757 0.48773204700180733 0.14235787504860792 109 73 71 0.46 22 0 23 0 26 0 
2825 2.0520718831624314 0.34846245329347036 0.04196448189669733 75 55 52 0.94 22 0 23 0 24 0 
2826 1.9876282689909917 0.39030149981892337 0.08296353749675164 58 25 23 0.25 22 0 23 0 24 0 
2827 1.3734412079703953 -0.5840631903331489 0.9906864677321576 128 167 215 1.16 23 0 24 0 26 0 
2828 1.3967100255787295 -0.5807722964978391 0.9739338383343575 146 156 187 0.14 23 0 24 0 26 0 
2829 1.6356445132299795 -0.15516037211897066 1.0895239456838326 24 20 27 0.27 23 0 24 0 26 0 
2830 1.633241336179052 -0.16030487616693886 1.074231329649978 36 35 69 0.21 23 0 24 0 26 0 
2831 1.6543523740355093 -0.16251889290488866 1.0628902655024666 101 155 179 0.36 23 0 24 0 26 0 
2832 1.2647125957438605 -0.8515014371249389 0.8466066794522114 28 58 112 0.42 23 0 24 0 25 0 26 0 
2833 0.6190680029951865 -0.881511221433783 0.8752075909657133 186 193 199 0.22 23 0 25 0 26 0 
2834 1.6463805932157738 -0.1737750488123953 1.0423917895913 55 50 84 0.52 23 0 24 0 26 0 
2835 0.6721007023795206 -0.8437294070085664 0.8467659528548067 182 197 207 0.27 23 0 25 0 26 0 
2836 0.6560035044224556 -0.836604517691796 0.8472930482782516 195 204 208 0.13 23 0 25 0 26 0 
2837 1.590937808794331 -0.09802258409804676 1.0547711769363746 148 207 238 0.7 23 0 24 0 26 0 
2838 1.1979266227620013 -0.8398236016329859 0.7892464411366318 72 69 65 0.48 22 0 23 0 24 0 25 0 26 0 
2839 0.6992304940985242 -0.8124388825735481 0.8359916992883347 192 203 211 0.96 23 0 25 0 26 0 
2840 1.5997887008322786 -0.09499310893116229 1.0476555527419473 112 166 203 0.97 23 0 24 0 26 0 
2841 1.6092365714734604 -0.10666712549979043 1.0331119027754392 163 223 252 0.22 23 0 24 0 26 0 
2842 1.5932805595142854 -0.10086445136433204 1.0356762483530297 89 117 153 0.51 23 0 24 0 26 0 
2843 1.1775214673368943 -0.8392165246351951 0.7651387111602156 68 65 60 0.9 22 0 23 0 24 0 25 0 26 0 28 0 29 0 
2844 1.6052410146948368 -0.10970021018336226 1.0193569790592645 181 222 251 0.44 23 0 24 0 26 0 
2845 1.6423901398899527 -0.13175002148870754 1.0004213134324165 78 121 174 0.48 23 0 24 0 26 0 
2846 1.176284566985564 -0.8196115367279004 0.7463158237724852 126 122 119 0.66 23 0 24 0 25 0 28 0 
2847 1.586742089541684 -0.07056846733501498 1.0211241111294411 93 117 154 0.42 23 0 24 0 26 0 
2848 1.6864007600423923 -0.07203625993968696 1.0067417120898658 97 120 152 0.47 23 0 24 0 26 0 
2849 1.6457696856519997 -0.13104312379800132 0.9846573014492107 88 136 192 0.16 23 0 24 0 26 0 
2850 1.672972730026861 -0.07821665320875769 0.9958853632729594 108 134 167 0.42 23 0 24 0 26 0 
2851 0.87129293297522 -0.6914478206724974 0.7261516133890494 75 121 143 1.15 23 0 25 0 27 0 
2852 0.8224897617397293 -0.7080321268431558 0.7158852704974048 74 109 137 0.75 23 0 25 0 27 0 
2853 1.971672768255125 -1.3941257105486435 0.34702176206542934 38 78 119 0.7 23 0 24 0 28 0 
2854 0.7543925926134939 -0.6422518512616505 0.7377182879688532 63 120 148 0.24 23 0 25 0 26 0 
2855 0.6801687905854472 -0.6085399175645609 0.7452186076642382 105 118 131 0.54 23 0 25 0 26 0 
2856 1.2007264934875828 -0.7340670523675789 0.6570059272639602 141 145 153 0.78 23 0 25 0 26 0 
2857 0.9195552445986607 -0.6509074494549972 0.6745522676966634 165 172 179 0.69 23 0 25 0 26 0 27 0 
2858 0.8881928132933988 -0.6627137284873993 0.6669493569059994 175 181 190 1.4 22 0 23 0 25 0 26 0 27 0 
2859 0.8531666905453352 -0.6883226338375049 0.6524474728773244 195 198 203 1.29 23 0 25 0 26 0 27 0 
