# 3D point list with one line of data per point:
#   POINT3D_ID, X, Y, Z, R, G, B, ERROR, TRACK[] as (IMAGE_ID, POINT2D_IDX)
# Number of points: 447, mean track length: 4.4
2750 -0.15216108125401384 -0.2940336400075276 -0.0174803400491365 143 139 138 0.53 62 0 63 0 64 0 65 0 66 0 67 0 68 0 
2751 -0.525996249124742 -0.2856154628397899 -0.02607781696561758 94 67 69 0.5 62 0 63 0 64 0 65 0 66 0 68 0 
2752 -0.42266477885553844 -0.29011266895297183 -0.012048702972335153 125 120 124 0.67 62 0 63 0 64 0 65 0 66 0 
2753 -0.9013086873292848 -0.2785290441863876 -0.02552631200935971 67 65 66 0.39 62 0 63 0 64 0 65 0 66 0 67 0 68 0 
2754 0.06594213188822803 -0.31630130662748435 -0.012986067913454778 70 66 67 0.5 62 0 64 0 66 0 67 0 68 0 
2755 -0.3277581841251058 -0.30684810105901517 -0.010626606544717993 122 112 115 0.66 62 0 65 0 66 0 
2756 -0.4815889597530501 -0.3048634914274583 -0.00863418292769048 117 114 110 1.24 62 0 63 0 64 0 66 0 
2757 0.47186920557999107 -0.3422078803302671 -0.006965552473521273 111 96 95 0.4 62 0 65 0 66 0 
2758 -0.12100109261080025 -0.32723395186874077 -0.012191686457097548 135 117 112 0.65 62 0 63 0 65 0 66 0 68 0 
2759 -0.055432424432295346 -0.3299961912123429 -0.01058787616161126 147 138 133 1.06 62 0 63 0 64 0 65 0 66 0 
2760 -0.3993209170461337 -0.3208561589991392 -0.01766129682730493 134 128 130 0.53 62 0 63 0 65 0 66 0 68 0 
2761 -0.9047663606810874 -0.30771445305842354 -0.026700071977671415 79 81 81 0.46 62 0 63 0 64 0 66 0 67 0 68 0 
2762 -1.4950469109540714 -0.6029568815463735 0.26315020794737437 31 32 40 0.59 62 0 66 0 67 0 68 0 
2763 -0.757498812588764 -0.6108302545787044 -0.049235048735600896 57 44 53 0.48 62 0 63 0 64 0 65 0 66 0 67 0 68 0 
2764 -0.11162552715087214 -0.5933889778711458 -0.009398430063343927 83 70 69 0.95 62 0 63 0 65 0 66 0 
2765 -1.4795152099125235 -0.6078813307089022 0.24230027877001045 16 14 17 0.45 62 0 66 0 67 0 68 0 
2766 0.06506005423172533 -0.34596590548779615 -0.013038814203873532 58 49 51 0.38 62 0 63 0 64 0 65 0 66 0 
2767 -0.03976822478552548 -0.3449713476726116 -0.018795088871568208 123 117 116 0.5 62 0 66 0 67 0 
2768 0.4209350357356643 -0.36598676542227354 -0.0214698659959798 53 36 41 0.45 62 0 65 0 66 0 
2769 -0.46850819360536194 -0.3361999491794126 -0.016158544163841614 94 78 79 0.36 62 0 64 0 66 0 
2770 0.44809085395637954 -0.3688049707862199 -0.010705580677937554 105 94 93 0.52 62 0 63 0 64 0 65 0 66 0 
2771 0.09153384223815057 -0.35835492547801034 -0.03280809708438782 45 28 31 0.51 62 0 64 0 66 0 67 0 68 0 
2772 -0.8738040589437339 -0.33508210878262434 -0.041602860502006074 37 23 28 0.36 62 0 63 0 64 0 65 0 66 0 68 0 
2773 0.314805618088028 -0.3747927243305181 -0.03222605828823721 70 52 59 0.46 62 0 63 0 64 0 65 0 66 0 67 0 
2774 -0.3568683604635385 -0.5921430625775218 -0.024441758821872318 70 76 82 0.38 62 0 63 0 64 0 65 0 66 0 67 0 68 0 
2775 -0.8472825062554254 -0.6093436954463185 -0.051622601145687216 48 34 41 0.58 62 0 63 0 64 0 65 0 66 0 67 0 68 0 
2776 0.4669471821539047 -0.3821313728303035 -0.012146654371159986 124 115 110 0.41 62 0 63 0 66 0 
2777 0.06380682373583936 -0.3738080566358994 -0.014197100422256614 73 65 65 0.46 62 0 63 0 66 0 
2778 -0.4794460604327809 -0.3616554441149416 -0.019798736080667907 145 136 130 0.39 62 0 64 0 66 0 67 0 
2779 -0.04785081928324985 -0.37382653706492064 -0.008430715865451424 140 125 123 0.4 62 0 66 0 67 0 
2780 -0.3266211197451052 -0.36664375449769704 -0.022404968371823323 115 111 112 0.28 62 0 64 0 65 0 66 0 
2781 -0.29745803137458454 -0.36912163028118516 -0.016298587568353822 133 124 125 1.14 62 0 63 0 64 0 65 0 66 0 67 0 
2782 -0.2551286423922701 -0.3691357296445291 -0.020796436056994338 89 81 82 0.52 62 0 63 0 65 0 66 0 67 0 68 0 
2783 0.4190169999437746 -0.3920592817948949 -0.02584097729879663 38 28 30 0.48 62 0 65 0 66 0 
2784 -0.878175869561746 -0.36145080084068 -0.044161474560101166 42 27 31 0.51 62 0 65 0 66 0 
2785 0.15225458243750606 -0.3874188284484456 -0.03288806770671616 147 142 143 0.46 62 0 64 0 65 0 66 0 
2786 0.03824365578686151 -0.3889131835162972 -0.031430360013865385 114 105 100 1.49 62 0 63 0 66 0 67 0 68 0 
2787 -0.9043965504606577 -0.3675977682775858 -0.026888257632330013 55 50 56 0.48 62 0 63 0 66 0 
2788 -0.40109135874380747 -0.378116019771591 -0.02159201355534795 112 107 104 0.37 62 0 63 0 64 0 65 0 66 0 67 0 68 0 
2789 -0.5223829558959496 -0.37720477342996955 -0.022377197072786632 89 64 65 0.53 62 0 63 0 65 0 66 0 67 0 
2790 -0.4849499555331534 -0.3777719214199956 -0.019479709988953847 103 93 91 0.81 62 0 63 0 65 0 66 0 67 0 
2791 -0.22110067737777298 -0.3843945604368457 -0.020127036541166328 119 87 87 0.38 62 0 63 0 66 0 68 0 
2792 -0.843640932506804 -0.3727725768051284 -0.048072255412440756 56 37 42 0.43 62 0 63 0 64 0 65 0 66 0 67 0 68 0 
2793 -0.7534708827180957 -0.375231940053395 -0.04640746551319363 65 56 67 0.53 62 0 63 0 65 0 66 0 67 0 68 0 
2794 -0.595456709120522 -0.3798429326106937 -0.049549775946362104 69 60 75 0.92 62 0 63 0 64 0 65 0 66 0 67 0 68 0 
2795 0.2906131434233077 -0.4013312362859074 -0.03241004533874838 53 36 42 0.47 62 0 63 0 64 0 65 0 66 0 67 0 
2796 0.38043632035981717 -0.4039265189218924 -0.031119422224377337 78 65 75 0.42 62 0 63 0 64 0 65 0 66 0 67 0 
2797 -0.4441217258575747 -0.5889575942364584 -0.026466830619956812 83 88 89 0.37 62 0 64 0 65 0 66 0 67 0 68 0 
2798 0.003389223368740283 -0.5822563290675041 -0.017925918566959385 95 90 83 0.58 62 0 63 0 65 0 66 0 67 0 
2799 -1.142194812948355 -0.609896961041531 -0.03279947075101405 27 29 30 0.39 62 0 63 0 64 0 65 0 66 0 67 0 
2800 -0.6821838309306761 -0.3792784441236835 -0.04611354948819503 61 46 51 0.41 62 0 63 0 64 0 65 0 66 0 67 0 68 0 
2801 0.12647556670426746 -0.3989555780115701 -0.03447361389431904 60 45 51 0.43 62 0 63 0 64 0 65 0 66 0 67 0 68 0 
2802 0.21921754906061294 -0.40049514162134575 -0.03009619134679807 73 58 70 0.45 62 0 64 0 65 0 66 0 67 0 68 0 
2803 -0.49230684246337003 -0.3902530928588635 -0.028809094950718064 133 124 119 0.25 62 0 63 0 66 0 
2804 0.008048672003438876 -0.40200262572589124 -0.005017947534999542 128 123 121 1.12 62 0 66 0 67 0 
2805 0.06422526884437595 -0.40332083484348785 -0.014999528851957801 59 57 58 0.43 62 0 64 0 65 0 66 0 67 0 68 0 
2806 -0.4403054960750653 -0.40373314706149277 -0.032743851686645106 152 149 149 0.57 62 0 64 0 66 0 
2807 -0.1114107861512494 -0.4090198467039616 -0.019931107835688782 140 128 128 0.32 62 0 64 0 65 0 66 0 
2808 0.4463278141964503 -0.42503819769445744 -0.012730346865273367 78 65 68 0.6 62 0 63 0 64 0 65 0 66 0 
2809 0.4691293215439667 -0.427636112159065 -0.0151521001061291 111 105 99 0.81 62 0 64 0 65 0 66 0 
2810 0.006110992884426597 -0.4176048854912208 -0.00044437929970876373 131 126 123 1.13 62 0 66 0 67 0 
2811 0.03352614995657936 -0.41726368758113075 -0.012526136537884902 120 113 109 0.55 62 0 63 0 64 0 65 0 66 0 67 0 68 0 
2812 0.20041532190548852 -0.4235806938858115 -0.030121698460673623 65 49 55 0.85 62 0 63 0 64 0 65 0 66 0 67 0 
2813 -0.20040867020911385 -0.4141361317550582 -0.019720920068849658 122 104 102 0.71 62 0 64 0 65 0 66 0 
2814 -0.5277630915883088 -0.5877434765272559 -0.0290635310410907 100 85 83 0.51 62 0 63 0 64 0 65 0 66 0 67 0 68 0 
2815 0.442495015219783 -0.5778421097700077 -0.016321461758001816 89 79 78 0.52 62 0 63 0 64 0 65 0 66 0 
2816 0.06017852599920358 -0.5800029514287316 -0.01704324121268772 61 47 48 0.64 62 0 64 0 65 0 66 0 
2817 0.46577823894008846 -0.5786039882683751 -0.012323718798382703 108 97 83 0.34 62 0 63 0 64 0 65 0 66 0 
2818 -0.754282426481057 -0.41969336010576164 -0.04826282971815241 49 32 35 0.83 62 0 64 0 66 0 67 0 68 0 
2819 -0.684283038243851 -0.42210761346279396 -0.04646602196601665 47 32 35 0.43 62 0 63 0 64 0 66 0 67 0 68 0 
2820 -0.43333166284902075 -0.4236856934449079 -0.029173286463460114 171 170 169 0.62 62 0 63 0 64 0 65 0 66 0 68 0 
2821 -0.39749415007384814 -0.42352939679087453 -0.01713192026248571 124 121 118 0.5 62 0 63 0 64 0 65 0 66 0 67 0 
2822 -0.10587063959759745 -0.4288415795660074 -0.0147173128638837 128 124 120 0.34 62 0 63 0 64 0 65 0 66 0 
2823 -0.015553061364938028 -0.4311405318307937 -0.014259611002082877 122 108 107 0.49 62 0 64 0 66 0 
2824 -0.5898800772042114 -0.42503570659339607 -0.04235195809713606 45 32 35 0.47 62 0 63 0 64 0 65 0 66 0 67 0 68 0 
2825 0.22196475928635687 -0.441618224591231 -0.027946814411955852 52 36 39 0.53 62 0 63 0 66 0 67 0 
2826 0.032288714897263204 -0.43569646803293083 -0.017167563657338195 132 119 113 0.9 62 0 63 0 64 0 65 0 66 0 68 0 
2827 0.3830202023896917 -0.4451844107555905 -0.029679910211228292 57 39 44 0.44 62 0 64 0 65 0 66 0 
2828 -1.0598138273104678 -0.43218095255346745 -0.0350555124951331 18 22 27 0.46 62 0 63 0 65 0 66 0 67 0 
2829 0.13077339107201194 -0.4470834363093803 -0.034849918629769314 54 37 40 0.52 62 0 63 0 64 0 66 0 
2830 0.018774615579588247 -0.5690243891094758 -0.013260790124730689 113 103 95 0.82 62 0 64 0 65 0 66 0 67 0 
2831 0.036895601813932484 -0.5698560282889826 -0.01815930758499794 112 109 98 0.39 62 0 63 0 64 0 65 0 66 0 67 0 68 0 
2832 0.05873402709206607 -0.5690712409533223 -0.019764450797258415 49 49 49 0.68 62 0 63 0 64 0 66 0 67 0 68 0 
2833 -0.30165458855672933 -0.5773438035147513 -0.02376320535199785 145 137 131 0.59 62 0 63 0 64 0 65 0 66 0 67 0 68 0 
2834 -1.49907379215747 -0.5811814845766368 0.2557209246411349 49 52 56 0.49 62 0 66 0 67 0 68 0 
2835 -0.030856681972571156 -0.44527678339014287 -0.016334850711289463 129 120 120 0.5 62 0 65 0 66 0 
2836 0.061775905607115024 -0.44951960513503797 -0.017424831260895286 56 54 55 0.45 62 0 64 0 65 0 66 0 67 0 68 0 
2837 -0.44176168282095163 -0.45163560907135414 -0.025964322567357128 130 132 135 0.58 62 0 63 0 65 0 66 0 67 0 
2838 -0.40850169645111306 -0.4524075212300443 -0.019283558652789443 147 145 145 0.41 62 0 63 0 64 0 65 0 66 0 
2839 0.46413603240192397 -0.47153717485333585 -0.010856911818948196 138 132 125 0.68 62 0 63 0 64 0 65 0 66 0 
2840 -0.2117585959718779 -0.46310799564561983 -0.014128162214154237 94 95 100 0.79 62 0 65 0 66 0 
2841 -0.03954472810115771 -0.4644927054279112 -0.017083880423582425 90 69 70 0.39 62 0 64 0 65 0 66 0 68 0 
2842 -0.7561164824928552 -0.4614049755261432 -0.046831810898828444 61 49 59 0.53 62 0 63 0 64 0 65 0 66 0 67 0 68 0 
2843 -0.8758743700501307 -0.4681605794125314 -0.04245119629325962 32 21 25 0.26 62 0 63 0 64 0 65 0 66 0 
2844 -0.5951542563372048 -0.46715582329690336 -0.048891454546767396 69 59 73 0.96 62 0 63 0 64 0 65 0 66 0 67 0 68 0 
2845 0.2608287920278245 -0.4764181065624647 -0.0340308703835237 81 92 107 0.5 62 0 63 0 64 0 65 0 66 0 
2846 -1.080122274769369 -0.46999971562319376 -0.03351034487131172 28 31 34 0.66 62 0 63 0 64 0 65 0 66 0 67 0 
2847 -0.4175173461001341 -0.4721852963295048 -0.02707068909385043 86 90 94 0.57 62 0 63 0 64 0 65 0 66 0 67 0 68 0 
2848 0.020695161434251767 -0.4787644525588699 -0.017654443142052053 142 140 135 0.71 62 0 63 0 64 0 65 0 66 0 67 0 68 0 
2849 0.038661286688225605 -0.479586261033462 -0.03197858688262705 99 89 84 1.14 62 0 64 0 66 0 68 0 
2850 0.1255121659658981 -0.48513568360060977 -0.03506287939705845 62 47 53 0.43 62 0 63 0 64 0 65 0 66 0 67 0 68 0 
2851 0.21552738022190393 -0.48689304573712044 -0.03300555871490827 70 63 73 0.64 62 0 63 0 64 0 65 0 66 0 67 0 68 0 
2852 0.28893982118143874 -0.48929212812186873 -0.03299661038657652 68 55 62 0.44 62 0 64 0 65 0 66 0 67 0 
2853 0.38010108362386025 -0.4901788192748938 -0.03262677812422684 71 58 68 0.42 62 0 63 0 64 0 65 0 66 0 
2854 -0.818457200949366 -0.4876769670876482 -0.04794635577222097 54 38 42 0.4 62 0 63 0 64 0 65 0 66 0 
2855 -0.9180655845429444 -0.48878902567388915 -0.04792350342899455 50 45 52 0.98 62 0 63 0 64 0 65 0 66 0 68 0 
2856 0.09177825654018372 -0.49039078455787477 -0.031482547192236726 38 23 25 0.4 62 0 63 0 64 0 65 0 66 0 67 0 68 0 
2857 -0.9091708080746459 -0.5723831960896052 -0.03455753763314133 52 45 48 0.98 62 0 66 0 67 0 68 0 
2858 -0.35279249366307697 -0.5668562430614703 -0.038565966846579765 108 94 91 0.4 62 0 64 0 66 0 
2859 -0.2617699382952968 -0.5660009221511878 -0.022381319470854335 122 100 97 0.47 62 0 63 0 65 0 66 0 67 0 
2860 0.4648707165835505 -0.5632096930150126 -0.014305888297689617 135 127 117 0.41 62 0 63 0 64 0 66 0 
2861 -0.7009588835909208 -0.49115584708043875 -0.04179315116317289 55 58 71 0.57 62 0 63 0 64 0 65 0 66 0 67 0 68 0 
2862 -0.06727354756934584 -0.4935668529738929 -0.02410059476095453 148 131 128 0.78 62 0 63 0 64 0 65 0 66 0 
2863 0.41625630441176215 -0.4993121759099903 -0.025198476579201583 40 25 27 0.4 62 0 63 0 64 0 65 0 66 0 
2864 0.045746857581655774 -0.49734930761097496 -0.03148235401982454 70 64 63 1.04 62 0 65 0 66 0 67 0 68 0 
2865 0.443835731078014 -0.5028471443057572 -0.015454236596238298 95 84 84 0.48 62 0 63 0 64 0 65 0 66 0 
2866 -0.8829698646343601 -0.5053218086206547 -0.0511582595639728 67 65 73 0.36 62 0 63 0 64 0 65 0 66 0 
2867 0.01349928245724419 -0.5560674582808423 -0.016366505357094628 97 91 86 0.64 62 0 63 0 64 0 65 0 66 0 67 0 68 0 
2868 0.03907929573352063 -0.5549938792543693 -0.015463216973424811 125 112 104 0.61 62 0 63 0 64 0 66 0 67 0 
2869 -0.9757340229752348 -0.573892124883707 -0.035385575852990625 56 55 54 0.39 62 0 63 0 64 0 65 0 66 0 
2870 0.038444146217219054 -0.5105034450960412 -0.01222621920639767 128 124 115 0.69 62 0 63 0 64 0 65 0 66 0 67 0 68 0 
2871 -0.526128593898092 -0.5566177463273633 -0.02486670220876935 73 52 53 0.47 62 0 63 0 66 0 67 0 
2872 -0.05382840006504441 -0.5525810884687077 -0.023740530750941354 110 95 94 0.45 62 0 63 0 64 0 66 0 
2873 -1.0631044548073354 -0.5682920611265523 -0.030593303124893455 25 24 25 0.39 62 0 66 0 67 0 68 0 
2874 -0.45899052290046366 -0.5581559650052126 -0.015787828728555078 135 123 118 0.76 62 0 63 0 64 0 65 0 66 0 67 0 68 0 
2875 -0.47280127192081417 -0.5157245244983002 -0.024034677869914027 107 87 86 0.75 62 0 65 0 66 0 68 0 
2876 -0.7137895734179588 -0.5192314107192821 -0.052590773811826544 45 47 59 0.79 62 0 63 0 64 0 65 0 66 0 67 0 
2877 0.08738003902088565 -0.5181816532284618 -0.03677546046995993 41 28 30 0.49 62 0 64 0 65 0 66 0 67 0 68 0 
2878 -0.06560956136543676 -0.5233152391695651 -0.01846019306829035 139 142 142 0.57 62 0 63 0 64 0 65 0 66 0 67 0 
2879 -0.024093345577557535 -0.5275921704970311 -0.038534424262813685 116 94 92 0.75 62 0 64 0 65 0 66 0 
2880 -0.47826354302410384 -0.5298617898560575 -0.02678786060598101 130 128 127 0.56 62 0 63 0 64 0 65 0 66 0 67 0 
2881 -0.2923102774236578 -0.5276311618974054 -0.029504524861005937 57 55 61 0.65 62 0 63 0 64 0 65 0 66 0 68 0 
2882 0.015673188264384467 -0.5270452344983686 -0.02005298440489939 118 95 90 0.46 62 0 63 0 64 0 65 0 66 0 67 0 
2883 0.4436722014024382 -0.533805913704658 -0.01171155916253214 69 53 55 0.4 62 0 64 0 65 0 66 0 
2884 0.3795216166536207 -0.5364671571583723 -0.03155334224263534 49 33 37 0.64 62 0 63 0 64 0 66 0 
2885 -0.06808070302689853 -0.5373160956310703 -0.018698322391233493 107 99 94 0.67 62 0 63 0 64 0 65 0 66 0 67 0 68 0 
2886 -0.008134139933726992 -0.5397254964592239 -0.019014895913749236 99 89 86 0.6 62 0 64 0 65 0 66 0 68 0 
2887 0.149874525986925 -0.5411367263868102 -0.056874175793279316 66 50 57 1.07 62 0 64 0 66 0 
2888 -0.03983047220639096 -0.5404557075741161 -0.02553098569662087 116 108 107 0.76 62 0 63 0 64 0 66 0 
2889 0.04030111216041307 -0.5404514870320625 -0.013667495295800367 103 91 81 0.6 62 0 63 0 64 0 65 0 66 0 67 0 
2890 -0.913191612120779 -0.5553672826018048 -0.05033487525393088 43 30 35 0.51 62 0 66 0 68 0 
2891 -0.32269766493607 -0.5470281181044052 -0.02588405263072384 121 113 111 0.73 62 0 63 0 64 0 65 0 66 0 68 0 
2892 0.4674501657112641 -0.5480684264908919 -0.009467435667516962 102 99 89 0.52 62 0 63 0 64 0 65 0 66 0 
2893 -0.25702496581008394 0.8632357434984672 0.006178621975788337 130 141 149 0.57 62 0 63 0 64 0 65 0 66 0 
2894 -0.1338439133241356 0.8296862585732478 0.005797816246289905 111 113 128 0.59 62 0 63 0 65 0 66 0 67 0 68 0 
2895 0.9510104126836946 0.5475891540076162 0.01740307386295535 132 126 125 1.02 62 0 63 0 64 0 65 0 66 0 67 0 68 0 
2896 0.6815607765639691 0.5376846026293725 0.012616198919566734 159 162 163 0.56 62 0 63 0 65 0 66 0 68 0 
2897 0.059219655362439984 -0.5565789761983223 -0.02183311872536907 45 43 45 0.37 62 0 63 0 64 0 65 0 66 0 67 0 68 0 
2898 0.11459314343286399 0.5855367148164008 0.008830662522195954 142 125 126 0.28 62 0 65 0 66 0 
2899 -1.0469025152155396 0.8637968606462898 -0.0031459545561743005 195 195 194 0.57 62 0 64 0 65 0 66 0 68 0 
2900 0.7627201861031735 0.4363247818618295 0.004994731718839108 136 127 130 1.09 62 0 63 0 64 0 65 0 66 0 67 0 
2901 0.2702743919066367 0.4526877824622828 0.007447912223623068 165 160 157 0.54 62 0 64 0 65 0 66 0 
2902 0.6149908866215152 0.4145663915677576 0.014595693969043255 174 169 166 0.6 62 0 63 0 65 0 66 0 68 0 
2903 0.043613456134613496 -0.37275378065208975 -0.004202698942500921 117 103 98 0.88 62 0 63 0 64 0 65 0 66 0 67 0 
2904 0.2587350469937878 0.39629171409828323 -0.006857561327587164 156 152 154 1.08 62 0 63 0 64 0 66 0 
2905 0.019491225480328455 0.3663863718048305 -0.002509643667620731 166 166 168 0.43 62 0 63 0 64 0 65 0 66 0 
2906 0.37092253334813413 0.3148678050446159 0.0017883190831332837 160 150 154 0.48 62 0 63 0 66 0 
2907 0.014887755829348 0.3416736276901322 -0.014937719688947887 142 145 149 1.49 62 0 63 0 64 0 65 0 66 0 
2908 0.6507346592803316 0.2201955406889913 0.0030503818351694132 161 159 156 0.38 62 0 65 0 66 0 
2909 0.3735885127301626 0.263228154601204 0.00038037122188782675 107 103 109 0.91 62 0 65 0 66 0 67 0 68 0 
2910 0.8515742240642387 0.1645559794082328 0.012025793792282748 171 168 169 0.43 62 0 64 0 65 0 66 0 
2911 -0.005096985829816733 -0.2443774293064835 -0.011842359912897246 100 86 95 0.5 62 0 64 0 65 0 66 0 
2912 -0.2698005070717081 -0.22484362101274163 -0.02583630873373326 104 84 84 0.56 62 0 64 0 65 0 66 0 67 0 
2913 0.17223130764885078 0.20871674555249597 0.0035642321591363916 129 123 122 0.75 62 0 63 0 64 0 65 0 66 0 67 0 
2914 0.8145894980975252 0.06865266062622292 0.0072419936825779945 173 169 167 0.4 62 0 63 0 65 0 66 0 68 0 
2915 0.18921580290856993 -0.20357415105792714 -0.03309223590489086 50 38 44 0.87 62 0 64 0 65 0 66 0 68 0 
2916 0.6425979713848565 0.029667421352750693 0.002642861640956073 140 135 133 1.23 62 0 63 0 64 0 65 0 66 0 
2917 -0.2642727217317712 0.13864912141273694 -0.009266781374673917 149 152 152 0.48 62 0 63 0 64 0 65 0 66 0 67 0 68 0 
2918 -0.034653841684532886 0.11810650264166991 -0.010207418281624149 139 131 133 1.49 62 0 64 0 66 0 
2919 0.13802516221375324 0.06627006100940976 -0.0016323064092690247 139 131 133 1.0 62 0 63 0 64 0 65 0 66 0 
2920 -0.4019917998527234 0.14170339320610592 -0.034859749381986105 84 89 102 1.43 62 0 64 0 65 0 66 0 
2921 -0.047413680631626265 -0.15081299693407293 -0.018204395547593462 136 129 126 0.63 62 0 64 0 65 0 66 0 
2922 0.44431186549497376 0.023467398581608036 -0.011580174684676649 128 119 115 1.17 62 0 63 0 64 0 65 0 66 0 
2923 0.18359529366958652 0.01059495485932081 -0.010504702684890902 113 114 118 0.56 62 0 64 0 65 0 66 0 
2924 -0.20790123809801622 0.055473356123436145 -0.007881204284133721 183 184 187 0.75 62 0 63 0 64 0 65 0 66 0 
2925 0.1940429725634898 -0.019566251985892395 -0.0008081160870603274 150 143 137 0.57 62 0 63 0 65 0 66 0 
2926 0.12091391389374491 -0.01567139138897365 -0.0030483993468594503 141 130 124 0.51 62 0 63 0 64 0 66 0 
2927 0.342279680278504 -0.045907318373914804 -0.00894626674756761 54 42 46 0.99 62 0 63 0 64 0 65 0 66 0 
2928 0.4079382952590542 -0.6990958523836666 -0.0038104673068478953 101 128 143 0.74 62 0 63 0 64 0 65 0 66 0 67 0 
2929 0.43301874264052054 -0.6985376019551037 -0.016411726818949323 81 95 105 1.29 62 0 63 0 64 0 66 0 67 0 
2930 -0.2582928754060569 -0.04774667103312352 -0.013590809843313022 147 144 148 0.4 62 0 63 0 65 0 66 0 68 0 
2931 0.15945996312970206 -0.0721972966147749 -0.02870758140919211 58 45 49 0.93 62 0 63 0 65 0 66 0 67 0 
2932 0.24092028926850131 -0.07747016252779501 -0.01535116354752133 43 33 37 0.77 62 0 63 0 65 0 66 0 
2933 0.8432803142017549 0.5010774956281123 -0.0051261200062740625 186 182 179 1.16 62 0 63 0 66 0 67 0 
2934 -0.2940347173317609 -0.01889358058733548 -0.009551177086723726 149 141 137 1.51 62 0 63 0 64 0 65 0 66 0 
2935 0.5161549168034926 -0.06546356704741936 -0.0035302590840152522 169 168 168 1.02 62 0 65 0 66 0 
2936 -0.1293468501870092 0.0302806003244427 0.018362236653069314 204 211 216 1.51 62 0 63 0 65 0 66 0 
2937 -0.006134955320266959 -0.43188881555986985 -0.02429598770533447 136 131 129 1.07 62 0 65 0 66 0 
2938 0.6750567489222763 0.4191730531961897 0.007260714656139585 143 139 137 0.94 62 0 64 0 65 0 66 0 68 0 
2939 0.5240820894726097 0.016937204038754827 -0.0010735347242428047 139 131 126 1.35 62 0 63 0 66 0 
2940 0.7989595093777786 0.31599157776556575 -0.001266946640760755 119 121 129 0.69 62 0 63 0 66 0 67 0 
2941 0.828061780932231 0.27281236648837526 0.008992188970391541 188 190 192 0.75 62 0 64 0 65 0 66 0 68 0 
2942 0.6550185078636467 0.057788820168888415 -0.004332994218713402 160 155 151 1.25 62 0 63 0 64 0 65 0 66 0 
2943 -0.22547762597295634 -0.3417344243755237 -0.023001023699028122 120 106 107 0.47 62 0 65 0 66 0 67 0 
2944 0.4192841522874834 0.09562643436721589 -0.009718612872716354 154 146 147 1.5 62 0 63 0 64 0 66 0 
2945 0.8444684236257031 0.22936321994079772 0.006585175203062964 156 154 156 0.32 62 0 65 0 66 0 
2946 -0.42423911197495784 -0.6113163561464939 -0.030428405381221067 89 86 86 0.97 62 0 63 0 65 0 66 0 67 0 
2947 -0.024090569926423274 -0.2690526637091756 -0.026992133717322137 141 133 131 1.6 62 0 63 0 64 0 65 0 66 0 
2948 0.8228059087399614 0.18131098397161233 0.01293087341194819 170 164 162 1.09 62 0 64 0 65 0 66 0 67 0 
2949 0.2505208756926835 0.1909589793283614 0.002026314591069982 129 112 112 0.75 62 0 63 0 64 0 65 0 66 0 67 0 
2950 0.009979535022457908 -0.2273660384879152 -0.020324689277488286 152 145 141 0.46 62 0 63 0 65 0 66 0 
2951 -0.32441792535240543 -0.5222435061506985 -0.030725149192016528 99 92 94 0.85 62 0 64 0 65 0 66 0 67 0 
2952 0.20844992634648413 -0.5384536196203977 -0.04283436109992326 48 33 35 0.58 62 0 64 0 65 0 66 0 67 0 
2953 0.11920253220435213 0.6778390461037517 -0.001006877108366357 131 137 147 1.27 62 0 63 0 64 0 65 0 66 0 
2954 -0.10315553205081816 -0.2371714663869026 -0.02249453681212402 122 114 111 1.1 62 0 63 0 64 0 66 0 67 0 
2955 0.6141588338693611 0.1399375791434218 0.01140109133392753 141 142 149 1.08 62 0 64 0 66 0 67 0 68 0 
2956 0.36089169099914775 0.2614832892305133 0.013023478427906923 86 86 94 1.06 62 0 65 0 66 0 
2957 0.031486510646707176 -0.2990401574891704 -0.02046111911645125 130 126 124 1.07 62 0 63 0 64 0 65 0 66 0 67 0 
2958 -0.7107934662487241 0.5711182141501944 -0.007907176485195278 172 166 168 0.39 62 0 66 0 67 0 
2959 0.45875020885836804 -0.023047914969513788 0.006488787929519619 158 155 154 0.56 62 0 63 0 64 0 65 0 66 0 
2960 -0.1883617928765238 -0.44617047809325017 -0.03907417502643077 101 87 89 0.94 62 0 65 0 66 0 
2961 0.3068952010821292 -0.6721818542823362 -0.0292419222975145 87 83 90 0.94 62 0 63 0 64 0 65 0 66 0 67 0 
2962 -0.1862772473247939 0.41561240784087505 -0.0006443428273027627 172 160 160 0.89 62 0 63 0 66 0 67 0 
2963 -0.605333070563167 -0.6789012023637103 0.07493107212691144 122 142 168 0.5 62 0 64 0 65 0 66 0 67 0 68 0 
2964 -0.4148436909704729 -0.142139018272584 -0.027371544429000014 102 95 93 1.09 62 0 63 0 64 0 65 0 66 0 
2965 -3.115857442370945 2.6518012383293157 -0.9675299953346436 67 82 92 0.47 63 0 66 0 67 0 
2966 -3.085260458494861 2.6730565613520354 -1.0215644417370782 226 243 246 1.45 63 0 64 0 65 0 66 0 
2967 -0.1209149371513215 1.0681650707138164 0.007758685182715753 114 136 158 0.38 63 0 66 0 67 0 68 0 
2968 -0.0641641641192159 1.0463173959979077 0.00565760069789749 191 194 196 0.53 63 0 66 0 67 0 
2969 -0.08103911571503988 1.030502057501277 0.00841957947150103 159 166 176 0.52 63 0 66 0 67 0 68 0 
2970 0.07104076956161413 0.9808707529936511 0.013538600081020449 154 167 176 0.26 63 0 66 0 68 0 
2971 -0.3611308238509785 1.1041285063407795 0.0034247390158024488 143 147 157 0.42 63 0 65 0 66 0 67 0 
2972 0.020902205396613503 0.988465931246763 0.009942122576270583 189 183 183 0.32 63 0 66 0 68 0 
2973 -0.3944065786371936 1.0988905103076845 0.0086270676683029 168 178 185 0.55 63 0 65 0 66 0 68 0 
2974 -0.17753601076760428 1.038302207502518 0.010700942272088352 113 156 173 0.43 63 0 65 0 66 0 67 0 68 0 
2975 -3.095181093414089 2.6475473098305913 -1.1206140868377625 201 201 198 0.65 63 0 64 0 65 0 66 0 
2976 -0.052369264570101506 0.9953914519978146 0.01174280520595122 166 167 170 0.52 63 0 65 0 66 0 67 0 
2977 -3.5175796827776127 2.716925810671982 -1.0810285932495238 172 188 199 0.3 63 0 64 0 65 0 66 0 
2978 -0.09130339701307282 0.9898394119833069 0.011641243990684811 154 158 164 0.5 63 0 64 0 65 0 66 0 67 0 
2979 -0.018560224659066957 0.970638259355001 0.009428465999396202 160 166 173 0.68 63 0 65 0 66 0 67 0 
2980 0.11209221857201618 0.9326895966036698 0.010052543874950194 163 163 167 0.75 63 0 65 0 66 0 67 0 
2981 0.1697407126369189 0.9197558848201949 0.010918889506595654 175 178 180 0.61 63 0 66 0 67 0 68 0 
2982 -0.4345723041645835 1.085465023181291 0.0016606834383671948 185 190 190 0.53 63 0 64 0 65 0 66 0 67 0 68 0 
2983 0.2318373787111947 0.8941336969465331 0.0169474996195052 147 154 158 0.31 63 0 66 0 67 0 68 0 
2984 -3.5349159426130057 2.6897221946819183 -1.1071435599035522 187 222 246 0.45 63 0 64 0 66 0 
2985 -0.257660310482892 1.022601745902806 0.0037973444410196056 107 126 148 0.39 63 0 64 0 65 0 66 0 67 0 68 0 
2986 0.20963474917070424 0.8748545264047577 0.016416054505564145 162 159 164 0.43 63 0 65 0 66 0 67 0 68 0 
2987 -0.1984608662592482 0.9843886359195092 0.00595684858549998 149 142 149 0.51 63 0 64 0 65 0 66 0 67 0 
2988 0.35428648670596585 0.8338858124685699 0.01640849406132706 200 198 192 0.34 63 0 64 0 65 0 66 0 67 0 68 0 
2989 0.4477046303710556 0.8001098928674752 0.021179078821715245 174 178 181 0.83 63 0 64 0 66 0 67 0 68 0 
2990 -0.3307320989339378 1.0049360414282102 0.0045754324130444475 176 177 178 0.49 63 0 64 0 65 0 66 0 67 0 
2991 0.4184522293270526 0.8059501229361804 0.015635379301040617 184 185 183 0.67 63 0 64 0 65 0 66 0 67 0 68 0 
2992 0.3036178652865576 0.8323534716624891 0.01505761824615062 143 142 150 0.34 63 0 65 0 66 0 
2993 0.37729530674720935 0.8156890661758437 0.014463113300754785 159 158 159 0.58 63 0 64 0 65 0 66 0 
2994 -0.5014975029953134 1.0455673337118996 0.0015328193250187196 173 171 174 0.31 63 0 64 0 65 0 66 0 68 0 
2995 -0.037790868628597915 0.9118965738651565 0.013509765748160889 179 185 186 0.73 63 0 64 0 65 0 66 0 
2996 0.33242841798007067 0.8175455145586332 0.015578923958302111 140 127 134 0.5 63 0 64 0 65 0 66 0 67 0 
2997 0.4564093704791026 0.7892008957047302 0.01092883000222226 94 108 125 0.21 63 0 65 0 66 0 
2998 0.08222423947306193 0.8697056566776327 0.009221846795023352 174 168 169 0.41 63 0 64 0 65 0 66 0 67 0 68 0 
2999 -0.5017039565770901 1.0195712287237293 0.003497554583955848 187 181 181 0.43 63 0 64 0 65 0 66 0 67 0 68 0 
3000 -0.337472192244302 0.9771573500824261 0.0028362147172785314 176 168 166 0.95 63 0 65 0 66 0 67 0 68 0 
3001 0.3542351315632931 0.7939368078018433 0.015791804292718085 131 125 136 0.43 63 0 64 0 65 0 66 0 67 0 68 0 
3002 0.5335759414460197 0.7545272616193491 0.010978617416325488 119 116 125 0.69 63 0 64 0 66 0 68 0 
3003 -0.22601215622893558 0.9362758473439937 0.009625639902950059 175 179 182 0.6 63 0 64 0 65 0 66 0 67 0 68 0 
3004 -0.15773003546799463 0.9224016411357175 0.00830751512222743 94 113 139 0.31 63 0 64 0 65 0 66 0 67 0 68 0 
3005 0.42894615903165045 0.7670919158628217 0.016277845498607807 155 154 155 0.49 63 0 65 0 66 0 68 0 
3006 0.2083468113784299 0.8159886938143296 0.01354696011131881 173 153 150 0.51 63 0 64 0 65 0 66 0 67 0 68 0 
3007 0.28635042821704615 0.7848888915160998 0.01943135815585167 151 130 133 0.56 63 0 64 0 65 0 66 0 67 0 
3008 0.07291080997223781 0.8396009199024004 0.010495287971525664 163 168 176 0.8 63 0 64 0 65 0 66 0 67 0 68 0 
3009 0.12204386004688862 0.8273908469952083 0.011133755008402156 182 185 182 0.32 63 0 64 0 65 0 66 0 68 0 
3010 -0.47795116941263166 0.9813208494914926 0.004262254620833827 156 162 169 0.47 63 0 64 0 65 0 66 0 67 0 68 0 
3011 0.24773183099785956 0.7956703072134876 0.010987927879779742 153 140 136 0.33 63 0 64 0 65 0 66 0 
3012 0.515329450174391 0.7271968720610531 0.019559669548339244 174 170 167 0.36 63 0 64 0 65 0 66 0 
3013 0.7176558366185701 0.6813570667936154 0.014540541078164033 185 179 177 0.54 63 0 64 0 65 0 66 0 67 0 
3014 0.31623011507006643 0.7717154510486564 0.013447827319060319 125 130 140 0.27 63 0 64 0 65 0 66 0 67 0 68 0 
3015 -0.5178156052458424 0.9826080419955995 0.002989155488538352 169 180 184 0.39 63 0 64 0 65 0 66 0 67 0 68 0 
3016 -0.3104010400530973 0.9294367806757753 0.0047171825550818836 120 127 142 0.42 63 0 64 0 65 0 66 0 67 0 68 0 
3017 0.019535210641165236 0.8431050184093802 0.008736876534197798 120 123 138 0.42 63 0 64 0 65 0 66 0 68 0 
3018 -0.06396195299390428 0.8602876868488221 0.009186787585680475 154 154 156 0.17 63 0 64 0 65 0 66 0 68 0 
3019 0.12080424804932266 0.813441766854416 0.011102715848175883 112 86 89 0.37 63 0 64 0 65 0 66 0 67 0 
3020 0.6121437677806709 0.6963474669988149 0.009167726745520207 190 193 191 1.12 63 0 64 0 66 0 
3021 0.5291525759539067 0.7075660082898589 0.019056059993228687 147 144 147 0.54 63 0 65 0 66 0 67 0 
3022 -0.3720103031936986 0.9318607076852949 0.003239231660330464 157 151 158 0.47 63 0 64 0 65 0 66 0 68 0 
3023 0.8116527944982295 0.6451381027688122 0.014224958550836239 165 164 164 0.48 63 0 66 0 67 0 
3024 0.2785523108637903 0.7554756510460395 0.02164094360951708 147 139 144 0.53 63 0 64 0 65 0 66 0 
3025 0.8512705264128124 0.6252921847567561 0.02353004092250499 173 169 165 0.53 63 0 64 0 65 0 66 0 
3026 -0.40974183734119934 0.9298213401373484 0.005682878649349646 164 171 178 0.96 63 0 65 0 66 0 67 0 68 0 
3027 -0.14567891232301705 0.8596946492700493 0.012500068973022199 132 152 164 0.35 63 0 64 0 65 0 66 0 67 0 68 0 
3028 0.6325255266882932 0.6757434777194434 0.011650954824243455 163 156 157 0.45 63 0 65 0 66 0 67 0 
3029 0.6565313890284786 0.668324901392329 0.010990422913314861 157 153 152 0.58 63 0 64 0 65 0 66 0 
3030 0.7050007385338289 0.6581385374478292 0.005854833424230637 158 150 147 0.86 63 0 64 0 65 0 66 0 67 0 68 0 
3031 0.3206847333778308 0.7335956550879134 0.013135986901753716 165 158 158 0.64 63 0 64 0 65 0 66 0 67 0 68 0 
3032 0.9331818658807233 0.6013675136315596 0.013019411056880127 151 149 145 0.28 63 0 65 0 66 0 
3033 0.8625814273838279 0.6128819265629474 0.014051569016250338 180 177 175 0.53 63 0 66 0 67 0 68 0 
3034 0.829908184080654 0.6163699509374987 0.01529262855009035 177 172 165 0.5 63 0 64 0 65 0 66 0 67 0 
3035 -0.2950430411597197 0.8754692549835801 0.007041571380885135 154 142 143 0.47 63 0 65 0 66 0 67 0 
3036 0.9046550048552221 0.596844662969637 0.01963852021608804 150 143 142 0.55 63 0 64 0 65 0 66 0 67 0 68 0 
3037 0.049126438678615186 0.7890745831225933 0.012548471676666749 141 122 126 0.32 63 0 64 0 66 0 67 0 68 0 
3038 0.2917871437305961 0.7343086238018882 0.005596441147570895 175 186 191 1.0 63 0 66 0 67 0 
3039 0.9589423644545426 0.5810882694010082 0.017323414310603108 137 126 120 0.7 63 0 64 0 65 0 66 0 67 0 
3040 0.7847974476110575 0.6165762175919167 0.015178772171078141 184 181 179 0.59 63 0 64 0 65 0 66 0 67 0 68 0 
3041 0.712558593911203 0.6257425782775609 0.015305950332081646 121 125 135 0.61 63 0 65 0 66 0 67 0 68 0 
3042 -0.7047921677683536 0.9643196217457773 -0.0032127066563224253 162 167 178 0.82 63 0 64 0 65 0 66 0 67 0 
3043 0.7661450656449246 0.6079152276261836 0.0196009289585704 160 151 148 0.73 63 0 65 0 66 0 67 0 68 0 
3044 0.9582982384078861 0.565674080114525 0.019696758850685142 141 142 140 0.64 63 0 64 0 65 0 66 0 67 0 
3045 0.3708110544964773 0.6919698455476438 0.012112877436114642 145 133 130 0.6 63 0 64 0 65 0 66 0 67 0 
3046 0.8633535944328071 0.5878013606534599 0.010489097383362496 183 179 174 0.32 63 0 64 0 65 0 66 0 
3047 1.093191591356611 0.5305271637310167 0.018282346209220864 172 165 160 0.45 63 0 64 0 65 0 66 0 67 0 
3048 0.9137730030870296 0.5627639898973017 0.021075862837816508 185 180 173 0.52 63 0 64 0 66 0 67 0 
3049 1.0727092274524852 0.5326402812207984 0.016890796990404567 154 157 156 0.46 63 0 64 0 65 0 66 0 67 0 
3050 0.8329880930870344 0.5817459196347319 0.015622049436329777 152 145 143 0.47 63 0 64 0 65 0 66 0 68 0 
3051 0.974203981417559 0.5489098368691281 0.018530876911947356 170 171 165 0.21 63 0 64 0 65 0 66 0 
3052 -0.2708473670435707 0.8279227651476796 0.00545342282304252 158 151 154 0.44 63 0 64 0 66 0 67 0 68 0 
3053 1.0521045601569692 0.5336749228401927 0.015610095714065087 168 161 153 1.16 63 0 64 0 65 0 66 0 67 0 
3054 0.9136116093305281 0.5510390044831921 0.019434762771609274 196 190 187 0.41 63 0 66 0 68 0 
3055 1.02240636212936 0.5320301678521264 0.01624860774211137 157 152 152 0.49 63 0 64 0 65 0 66 0 67 0 68 0 
3056 0.9852795007359179 0.5333730639028866 0.016747778906188823 162 157 149 0.62 63 0 64 0 65 0 66 0 67 0 68 0 
3057 1.1039626977487005 0.49892352658189637 0.02164991818864902 151 140 136 0.63 63 0 64 0 65 0 66 0 67 0 68 0 
3058 0.7522672650520229 0.5621860522086444 0.01829510600048713 92 112 127 0.45 63 0 64 0 65 0 66 0 67 0 68 0 
3059 0.984425228387681 0.5119448702741206 0.016285181119953404 194 186 180 0.24 63 0 65 0 66 0 68 0 
3060 1.0297076995728545 0.502748731685542 0.016012427925089754 159 157 153 1.08 63 0 64 0 65 0 66 0 67 0 68 0 
3061 1.064300877615682 0.4962884248160074 0.01811305096836915 111 99 106 0.48 63 0 64 0 65 0 66 0 67 0 68 0 
3062 1.0065627131565382 0.5054706160805325 0.014406551130593323 152 151 149 0.66 63 0 64 0 65 0 66 0 67 0 
3063 1.1060306977903709 0.48635388662009815 0.016345918665965017 166 170 169 0.66 63 0 64 0 65 0 66 0 
3064 1.1304853231478822 0.4760841634341005 0.019693458851853016 109 92 96 0.78 63 0 64 0 66 0 67 0 
3065 0.7310842941051067 0.5547278537731559 0.015276428857878794 160 152 151 0.27 63 0 64 0 65 0 66 0 
3066 -0.04200861420244323 0.7128032851495658 0.010915549619400297 188 188 185 0.8 63 0 64 0 66 0 
3067 0.6933700871778267 0.5593242206807184 0.010324108916389938 140 123 121 0.47 63 0 64 0 65 0 66 0 67 0 68 0 
3068 0.9457923182163763 0.5074751964491143 0.015345123909343216 169 166 161 0.58 63 0 64 0 65 0 66 0 67 0 68 0 
3069 0.45520688319566915 0.604450392080712 0.00911604859104969 143 144 150 0.79 63 0 64 0 66 0 67 0 68 0 
3070 -0.2800969152592107 0.7571726881657943 0.009905580968431592 179 163 155 0.5 63 0 65 0 66 0 
3071 -0.2155861674054932 0.749263128074742 0.0042513931841681235 136 136 138 0.51 63 0 64 0 65 0 66 0 67 0 
3072 0.9295572500837798 0.5032255459790971 0.016487210677139257 186 178 168 1.27 63 0 64 0 65 0 66 0 67 0 68 0 
3073 -0.003515804626579155 0.6973547612010436 0.00496745832362851 123 105 111 0.89 63 0 64 0 65 0 66 0 67 0 68 0 
3074 1.077721330652175 0.4717550378397399 0.017925102841939516 166 154 147 0.67 63 0 64 0 65 0 66 0 67 0 
3075 1.049717223730977 0.4733789073103073 0.014070133693850267 178 171 166 0.75 63 0 64 0 65 0 66 0 67 0 68 0 
3076 0.9840222713126416 0.4822519980262761 0.018010291570565214 157 158 156 0.35 63 0 64 0 65 0 66 0 68 0 
3077 0.9463814079406025 0.48490012206632543 0.01884920704726239 191 186 177 0.62 63 0 64 0 65 0 66 0 68 0 
3078 0.9151188170540693 0.4936725492993072 0.00918069371114633 187 177 168 0.48 63 0 64 0 65 0 66 0 
3079 1.0055801525470047 0.47496406501362365 0.014418380236632564 151 153 150 0.51 63 0 64 0 65 0 66 0 67 0 68 0 
3080 1.0905063617153836 0.45610621018677955 0.01765627874302363 165 147 136 0.39 63 0 64 0 65 0 66 0 67 0 68 0 
3081 0.42251557953998825 0.5861794680413561 0.010806083904628443 137 135 140 0.75 63 0 64 0 65 0 66 0 67 0 68 0 
3082 -0.026679858698954114 0.6791292578172712 0.005904301003646273 171 166 162 0.68 63 0 64 0 65 0 66 0 
3083 0.8684760907937318 0.49253779604357606 0.012632516908986254 191 189 189 0.77 63 0 64 0 65 0 66 0 67 0 68 0 
3084 1.122721993792287 0.4384699795217772 0.017661745186346976 83 89 93 0.71 63 0 65 0 66 0 67 0 
3085 1.0057726254331516 0.4574583929483258 0.016944426919900717 169 171 167 0.49 63 0 64 0 65 0 66 0 67 0 68 0 
3086 1.1050687974502367 0.43787648948156244 0.02125516912668894 174 175 176 0.57 63 0 64 0 65 0 66 0 67 0 
3087 0.027053608866025133 0.641943766528867 0.009426991954242696 157 157 158 1.02 63 0 64 0 65 0 66 0 68 0 
3088 0.9614121259099916 0.4546765006227274 0.01902533311553113 144 138 131 0.57 63 0 64 0 65 0 66 0 67 0 68 0 
3089 0.39538695746037356 0.5672325218260376 0.004227756310955107 143 143 145 0.78 63 0 64 0 66 0 68 0 
3090 0.9890709372349558 0.438393114416998 0.016564397228893853 177 179 177 0.45 63 0 64 0 65 0 66 0 67 0 
3091 1.0635755968599923 0.42601687149566886 0.012766416373705639 160 159 157 1.16 63 0 64 0 65 0 66 0 
3092 1.1279102524386133 0.4126412617171221 0.016851355092312836 159 158 160 0.56 63 0 64 0 66 0 68 0 
3093 0.9686768538566193 0.4375647052513066 0.018620034934207164 130 104 97 0.66 63 0 64 0 65 0 66 0 67 0 
3094 1.0399044649170865 0.42712544668457825 0.012706792640401757 182 178 173 1.11 63 0 64 0 66 0 67 0 68 0 
3095 0.5891965863039229 0.5069101581361557 0.009122098777441042 138 140 142 0.87 63 0 65 0 66 0 67 0 68 0 
3096 1.0944409314898598 0.4099839115469915 0.018660737467285457 130 121 121 0.57 63 0 64 0 65 0 66 0 67 0 68 0 
3097 -0.07148293040735017 0.6401300212462807 0.0004922231566744945 92 102 124 0.79 63 0 64 0 65 0 66 0 67 0 68 0 
3098 0.633855184648509 0.4960580218216341 0.009757301911635815 160 150 142 0.53 63 0 64 0 65 0 66 0 67 0 68 0 
3099 0.9797479803678699 0.41919460902883443 0.013081660488727673 156 144 139 0.72 63 0 64 0 66 0 67 0 
3100 1.1072911691889695 0.39638003223307783 0.015642303635606848 143 148 148 0.52 63 0 65 0 66 0 67 0 
3101 0.7034754301959202 0.46326274702895254 0.013584850906399317 166 161 156 0.53 63 0 64 0 65 0 66 0 
3102 1.0059027544508012 0.4094792429982606 0.01484390564363756 172 161 150 0.72 63 0 64 0 65 0 66 0 68 0 
3103 1.0926311592519746 0.3918425720975063 0.01776048761044515 120 126 130 0.47 63 0 64 0 65 0 66 0 67 0 68 0 
3104 -0.4736844308933633 0.7000482811750508 0.00191797160884925 189 181 177 0.16 63 0 65 0 66 0 
3105 -0.6724378640297308 0.7409536395530326 -0.005515577012245073 157 136 127 0.61 63 0 64 0 65 0 66 0 67 0 
3106 -0.5335587651351793 0.7059121157373671 -0.0044661410828760115 152 152 153 0.67 63 0 64 0 65 0 66 0 67 0 
3107 1.0220452440715215 0.39934902856190074 0.009148132416938867 163 158 154 0.8 63 0 65 0 66 0 67 0 68 0 
3108 1.0438177204568002 0.39660213396342103 0.008843638664782414 184 174 168 0.37 63 0 64 0 66 0 67 0 68 0 
3109 1.1267106171047572 0.3774121465709773 0.015705419159284868 158 159 159 0.69 63 0 64 0 65 0 66 0 68 0 
3110 1.1050122871970463 0.37595616581942737 0.017607944843454192 112 111 114 0.44 63 0 64 0 65 0 66 0 67 0 68 0 
3111 -0.7765748002084604 0.7424703209145499 -0.005441463868613476 155 151 152 0.85 63 0 64 0 65 0 66 0 
3112 0.5910066928661516 0.4621351796634114 0.011581401244829136 182 181 179 0.62 63 0 64 0 65 0 66 0 67 0 
3113 0.6914274417752655 0.44746408205133853 0.006785305617224335 145 150 156 0.78 63 0 64 0 65 0 66 0 67 0 68 0 
3114 0.8476752290336649 0.4131420761507291 0.011864485187136288 126 126 124 0.63 63 0 64 0 65 0 66 0 67 0 68 0 
3115 1.0311467567429438 0.3821640100769581 0.007479242246470916 185 183 181 0.55 63 0 64 0 65 0 66 0 68 0 
3116 1.0003793439995736 0.3772499826766804 0.017933012176604906 152 140 133 1.11 63 0 64 0 65 0 66 0 
3117 1.1060730475781175 0.3587147103665949 0.01712290797743815 151 140 134 0.5 63 0 64 0 65 0 66 0 67 0 68 0 
3118 0.9759552328287299 0.3772034900961275 0.016209896144542726 168 160 152 0.75 63 0 64 0 65 0 66 0 67 0 68 0 
3119 1.0400041411066225 0.36396896654524424 0.012778677671713536 173 174 175 0.76 63 0 64 0 65 0 66 0 67 0 
3120 1.1258617592289402 0.3470144394701537 0.010072235995534336 137 137 137 0.56 63 0 65 0 66 0 67 0 
3121 0.9891028252069733 0.36578021800930216 0.009820277831433622 172 165 157 0.73 63 0 64 0 65 0 66 0 67 0 68 0 
3122 -0.3055883306568461 0.6053564535264016 -0.002545685882400104 135 149 155 0.53 63 0 65 0 66 0 67 0 
3123 0.7980932128180264 0.38545072904227434 0.007535061573104459 174 168 165 0.51 63 0 65 0 66 0 68 0 
3124 1.1129967500235167 0.32773338986077777 0.018568887567076902 137 131 117 0.46 63 0 64 0 65 0 66 0 67 0 68 0 
3125 -0.6956575750181418 0.6665159104989156 -0.009761528841931736 176 170 170 0.58 63 0 64 0 65 0 66 0 
3126 -1.446482474942367 0.8202385869652963 -0.01982345870309341 101 92 97 0.4 63 0 64 0 65 0 66 0 67 0 68 0 
3127 1.0882137043608928 0.3308208060589832 0.013083738522023882 151 154 161 0.6 63 0 64 0 65 0 66 0 67 0 
3128 0.864979406993286 0.3641040051137831 0.014285460401298052 184 179 178 1.26 63 0 65 0 66 0 67 0 
3129 0.9853975007923191 0.3435719193139334 0.014846804463190222 115 115 126 0.49 63 0 64 0 65 0 66 0 67 0 68 0 
3130 1.1352880261037066 0.3141584856223095 0.015691595969734358 89 95 104 0.3 63 0 65 0 66 0 68 0 
3131 1.0347676189769202 0.33012062260071773 0.012689327774377075 179 183 182 0.44 63 0 65 0 66 0 67 0 68 0 
3132 1.1200606744553447 0.3130500204569662 0.015444853156639628 151 154 144 0.5 63 0 64 0 65 0 66 0 67 0 68 0 
3133 0.41827175877485556 0.42822140460623015 0.006904855600731323 111 107 119 0.47 63 0 65 0 66 0 67 0 68 0 
3134 0.9692278947392468 0.3312296916791064 0.01568370406962961 128 117 115 0.47 63 0 64 0 66 0 
3135 1.1032340871127584 0.3103153560102666 0.01648495894120308 94 97 109 0.35 63 0 64 0 65 0 66 0 
3136 0.8477297396283117 0.3521198078168158 0.012613774502690526 149 148 147 0.42 63 0 64 0 65 0 66 0 67 0 
3137 0.6328796735075137 0.38673824038887816 0.006800557835408291 183 179 177 0.54 63 0 66 0 68 0 
3138 1.1347979525113685 0.2980368470468864 0.015656523190313066 78 86 92 0.47 63 0 64 0 65 0 66 0 67 0 68 0 
3139 0.9709340844907609 0.31946021878004616 0.014548798470268423 134 128 126 0.48 63 0 64 0 66 0 68 0 
3140 0.7766745796988669 0.35030842469048035 0.011187541873475275 200 201 198 0.67 63 0 64 0 66 0 
3141 0.4480856933379793 0.4060740268420765 0.005753012977662927 182 178 171 0.46 63 0 65 0 66 0 67 0 68 0 
3142 -0.693762212916071 0.6155558041504269 -0.007371679406684247 158 163 167 0.7 63 0 64 0 65 0 66 0 68 0 
3143 0.6912495297505487 0.35302026352705923 0.01064063524295002 148 137 136 0.38 63 0 66 0 68 0 
3144 1.0524304538384013 0.2965429203000862 0.010982120568208496 175 179 177 0.98 63 0 64 0 66 0 68 0 
3145 0.27230393933098807 0.421769324047137 0.006615363866549 170 143 140 0.53 63 0 64 0 66 0 
3146 1.0032641848452848 0.30391422784942296 0.006420241612352855 165 161 160 0.62 63 0 65 0 66 0 67 0 
3147 0.9795676990378728 0.3019318958865294 0.011836580014923426 145 140 131 0.57 63 0 64 0 65 0 66 0 67 0 68 0 
3148 1.0921702066201115 0.28259651869993263 0.014956332548284336 130 135 135 0.55 63 0 64 0 65 0 66 0 67 0 68 0 
3149 0.7373659911558397 0.33729127624479344 0.01024197011862991 159 154 152 0.41 63 0 65 0 66 0 67 0 68 0 
3150 0.9503558489279844 0.300555670268963 0.013662019741794072 142 133 128 0.63 63 0 64 0 65 0 66 0 67 0 68 0 
3151 1.0710156173920635 0.27983420069695153 0.019136859359450743 179 176 174 0.42 63 0 65 0 66 0 67 0 
3152 0.2808573414916424 0.4077296988509557 0.0046067845761503514 174 158 150 0.42 63 0 64 0 66 0 
3153 0.6989557118683906 0.3395239301236305 0.0038923088246943763 176 173 174 0.82 63 0 65 0 66 0 
3154 0.9031784120287956 0.30452430868695685 0.013037689275942297 108 102 115 0.34 63 0 64 0 65 0 66 0 67 0 
3155 0.7838752603839235 0.3217040780130436 0.012164738235479856 171 162 164 0.31 63 0 65 0 66 0 68 0 
3156 1.1106422621705476 0.267111042528063 0.015052151758550377 143 150 158 0.46 63 0 65 0 66 0 
3157 -0.3211935575463986 0.4918092103264381 -0.002834150976178136 141 130 133 0.28 63 0 64 0 65 0 66 0 
3158 1.0042524857600814 0.2675767744749461 0.013907862830226232 155 150 144 0.62 63 0 65 0 66 0 67 0 
3159 0.2182007888309048 0.3947172699313798 0.0015537272907031846 145 136 129 0.41 63 0 64 0 65 0 66 0 67 0 68 0 
3160 0.40320319060694454 0.35588477109299715 0.009029742659679785 178 177 179 0.35 63 0 65 0 66 0 
3161 0.3691664879525453 0.35578159785278757 0.006311908374245459 114 123 133 0.64 63 0 64 0 66 0 68 0 
3162 1.0139729194791485 0.25027938951510886 0.015931265271673153 178 180 179 0.6 63 0 64 0 65 0 66 0 68 0 
3163 1.0974145086791187 0.23895966877414768 0.010533564268527857 144 140 136 0.54 63 0 65 0 66 0 67 0 68 0 
3164 0.8670509481240773 0.27728204729682165 -0.001485114248898372 145 146 148 1.0 63 0 65 0 66 0 67 0 
3165 0.9949844028765078 0.2500362557485942 0.013494762230338835 154 152 149 0.56 63 0 64 0 65 0 66 0 67 0 68 0 
3166 -0.6374934964788423 0.5214676624673137 -0.00715112404556 145 147 147 0.59 63 0 64 0 65 0 66 0 67 0 
3167 0.9727952873705301 0.24986826353325492 0.015076076750000464 163 162 160 0.56 63 0 64 0 65 0 66 0 
3168 1.0497622815097574 0.2391045790394087 0.011487795218288507 143 139 138 0.79 63 0 64 0 65 0 66 0 67 0 68 0 
3169 -0.29459666800226936 0.4540301147508064 -0.0005997549502961235 108 101 113 0.43 63 0 64 0 66 0 
3170 0.08066851056313956 0.39165248289748 -0.005829325455002753 107 110 122 0.41 63 0 64 0 65 0 66 0 67 0 
3171 0.9249103480264539 0.25435641985685836 0.003565274057032586 135 135 130 0.96 63 0 64 0 65 0 66 0 
3172 0.029034373738865835 0.3897771431949478 -0.004994504549363025 139 130 136 0.58 63 0 64 0 66 0 68 0 
3173 0.9446581562903639 0.23996872900651114 0.013897071613794254 144 134 126 0.55 63 0 64 0 65 0 66 0 67 0 68 0 
3174 1.0886709980579496 0.22216147787961363 0.006963417878140098 172 172 166 0.99 63 0 64 0 65 0 66 0 67 0 68 0 
3175 1.06806098182009 0.21941133906689916 0.014323102183354875 120 118 117 0.49 63 0 64 0 65 0 66 0 67 0 68 0 
3176 1.050778691690434 0.2200812986336874 0.014945804625925747 129 128 132 0.61 63 0 65 0 66 0 67 0 68 0 
3177 1.0256099745488532 0.22358243514646156 0.008071628795693892 169 172 180 0.59 63 0 64 0 65 0 66 0 67 0 
3178 0.10448877951405264 0.35948186618854905 0.0072316885631133025 133 126 124 0.46 63 0 64 0 65 0 66 0 
3179 0.7414487178977982 0.25791537788845426 0.00790616611321101 126 131 140 0.68 63 0 64 0 65 0 66 0 68 0 
3180 0.9432207080885124 0.2249818885976946 0.010562634311171114 139 136 135 0.54 63 0 65 0 66 0 68 0 
3181 1.1243997524384404 0.18876511363415457 0.012218877877940355 95 91 98 0.6 63 0 64 0 65 0 66 0 67 0 68 0 
3182 0.906850447678417 0.2223167533279056 0.008609402398360617 106 107 119 0.8 63 0 64 0 65 0 66 0 67 0 
3183 1.0985129691485886 0.19173921951628717 0.006601848933828377 135 140 139 1.34 63 0 64 0 66 0 67 0 68 0 
3184 0.9501980977511092 0.2088282014193286 0.013460524692212832 122 123 120 0.54 63 0 64 0 65 0 66 0 68 0 
3185 1.0801730045053348 0.1883316299089225 0.013417837015876746 130 122 121 0.57 63 0 65 0 66 0 
3186 1.0577297850473477 0.19111546311736619 0.012475208404885635 124 120 118 0.55 63 0 64 0 65 0 66 0 67 0 68 0 
3187 0.9898595411422764 0.19228635124721702 0.012283080942256799 163 158 153 0.61 63 0 66 0 67 0 
3188 0.9364418314885241 0.19393161879814524 0.01826220972473114 161 160 157 1.07 63 0 64 0 65 0 66 0 
3189 0.9479187334365861 0.19437430277609052 0.010825000869072376 139 140 134 0.51 63 0 65 0 66 0 67 0 
3190 0.9572881573706693 0.19218037515165376 0.013609921827294712 134 138 137 0.46 63 0 65 0 66 0 
3191 0.9672346411845041 0.19037648219463021 0.012356909864018698 122 126 129 0.41 63 0 64 0 65 0 66 0 67 0 68 0 
3192 1.056957547393231 0.1760395148921206 0.010935240837392479 146 144 137 0.55 63 0 64 0 65 0 66 0 
3193 0.9216135879703994 0.18785844402180885 0.011707281051596609 148 146 139 0.6 63 0 65 0 66 0 
3194 1.108903814720097 0.16189015663879472 0.012800904787070399 104 107 111 0.67 63 0 64 0 65 0 66 0 67 0 68 0 
3195 1.132985105835172 0.15778916321518913 0.01160637014155319 125 105 107 0.42 63 0 64 0 65 0 66 0 68 0 
3196 0.831268570151683 0.19681306869403892 0.013107038999789475 153 153 150 1.09 63 0 66 0 67 0 68 0 
