# 3D point list with one line of data per point:
#   POINT3D_ID, X, Y, Z, R, G, B, ERROR, TRACK[] as (IMAGE_ID, POINT2D_IDX)
# Number of points: 461, mean track length: 4.13
966 0.13147279246496296 0.04969239965012173 0.010897613052386568 160 152 150 0.9 78 0 79 0 80 0 82 0 84 0 
967 0.4556265407773823 0.05531993783287159 -0.04520838075017375 162 188 208 0.46 78 0 79 0 80 0 82 0 
968 0.5977272176339538 0.03469310076612708 -0.001813187910308045 108 106 108 0.5 78 0 79 0 80 0 82 0 
969 -0.3086317832366114 0.06668094966641724 0.007692030236087444 149 147 145 0.37 78 0 79 0 80 0 82 0 
970 0.22626409817647153 0.04622066038504824 -0.009587835535414868 171 171 170 2.15 78 0 80 0 82 0 
971 0.6367104533681331 0.02611850687302808 0.005656927147024593 141 135 134 0.34 78 0 80 0 82 0 
972 1.6745030281579294 -0.0004438268713057303 -0.025056068645814555 172 186 207 0.77 78 0 79 0 80 0 84 0 
973 -0.22490699994550523 0.053824267452113994 0.00845962640815845 142 138 137 0.47 78 0 79 0 80 0 82 0 84 0 
974 -0.3676353795020045 0.05665692321762805 0.011221160640650485 128 122 117 0.22 78 0 79 0 80 0 82 0 
975 0.3111210220088384 0.027787864477894497 0.00851246728620314 156 155 156 0.64 78 0 79 0 80 0 82 0 84 0 
976 -0.331528261539643 0.048090441945652485 0.023732147876060594 154 148 146 1.95 78 0 80 0 82 0 84 0 
977 1.553678256407776 -0.0033379653547978005 -0.04498595040325859 143 150 171 0.5 78 0 79 0 80 0 
978 -0.29014261088448223 0.04355761933885627 0.021022872733600817 132 129 126 1.2 78 0 79 0 80 0 82 0 84 0 
979 -0.2682997125133234 0.043221367156877744 0.012696371055776812 138 137 136 1.3 78 0 79 0 80 0 82 0 84 0 
980 -0.08169650295519282 0.034831546025303695 0.01695097034702897 41 35 33 0.36 78 0 79 0 80 0 82 0 
981 0.25939509697736474 0.021734625230329097 0.0014962788632635338 160 155 152 0.46 78 0 79 0 80 0 82 0 84 0 
982 -0.40877249194224774 0.04845024029328249 0.009546000953917666 132 131 133 0.52 78 0 79 0 80 0 82 0 
983 -0.3878758660046724 0.04693392191624812 0.006246912122466419 146 146 149 0.46 78 0 79 0 80 0 
984 -0.22688446435819343 0.03693806606986472 0.009498003364659446 147 140 134 0.9 78 0 79 0 80 0 82 0 84 0 
985 -0.3672639409823656 0.0405975305341818 0.007869881620131913 167 160 152 0.15 78 0 79 0 80 0 82 0 
986 1.6951271381421225 -0.045506512915777786 -0.0017406376569852888 111 103 100 0.79 78 0 79 0 80 0 84 0 
987 -0.4925919731528615 0.044629024358564084 0.010973860412523795 146 142 140 0.67 78 0 79 0 80 0 82 0 
988 0.1878856785817692 0.0100391333760953 0.009555072319623825 152 155 161 0.43 78 0 80 0 84 0 
989 2.525800994550075 -0.014144200557974607 -0.23226922620339896 49 59 49 0.2 78 0 79 0 80 0 
990 0.07986203485115762 0.008430119402542569 0.024920766681264528 126 121 122 1.58 78 0 80 0 82 0 84 0 
991 -0.4317052876819408 0.03504414384304677 0.01454891187437024 154 145 136 0.38 78 0 79 0 80 0 82 0 
992 0.10645803833921275 0.009934467854536 0.007930104686704631 142 136 138 1.09 78 0 79 0 80 0 82 0 84 0 
993 -0.5045872570191032 0.03008475455826498 0.012530231551199034 161 159 158 0.6 78 0 79 0 80 0 82 0 
994 -0.27278784270637213 0.011441056434724928 0.023510159974844846 137 131 126 0.8 78 0 79 0 80 0 82 0 
995 1.8565785117363065 -0.07959363987588419 0.0037279788408119963 123 123 129 0.5 78 0 79 0 80 0 84 0 
996 -0.29377790524490843 0.016271538492145243 0.007067369359557318 127 107 104 0.42 78 0 79 0 80 0 82 0 
997 -0.41541522924890356 0.01824510007782032 0.015945224774697397 128 123 124 0.71 78 0 80 0 82 0 
998 -0.38916444608170075 0.019298006128800282 0.001913305638356455 140 132 129 0.61 78 0 79 0 80 0 82 0 
999 0.16424424597539278 -0.015527753532916133 0.014139835296811398 153 153 152 0.13 78 0 80 0 84 0 
1000 -0.35935597070448316 0.017103556001918707 -0.004651567246119814 171 168 164 0.42 78 0 80 0 82 0 
1001 -0.32702878294156024 0.004712214159418804 0.02288641826339921 154 152 146 0.86 78 0 80 0 82 0 
1002 -0.13348489432651894 -0.002886693501349624 0.0113899780929132 144 137 132 1.47 78 0 80 0 82 0 84 0 
1003 0.23092153064241405 -0.018374388126579988 -0.0035694146976386065 154 151 150 0.67 78 0 79 0 80 0 82 0 84 0 
1004 -0.07783415591135134 -0.010278391536866938 0.00412403549915874 129 122 120 0.96 78 0 80 0 82 0 84 0 
1005 0.10815294381909618 -0.025681837149731823 0.021391908776205337 141 133 135 1.25 78 0 82 0 84 0 
1006 -0.2607003407106583 0.00011700678017589894 0.0033340877822398696 150 137 129 0.4 78 0 80 0 82 0 
1007 -0.24811039889483094 -0.003098627715676372 0.00792056945048003 165 162 160 0.74 78 0 79 0 80 0 82 0 84 0 
1008 -0.23667562258366415 -0.0017938943760282822 -1.6656011082805122e-05 139 131 125 0.77 78 0 80 0 84 0 
1009 -0.05197752693298208 -0.012806721545751576 0.0016878187279534274 145 138 133 1.12 78 0 80 0 82 0 84 0 
1010 1.7409307128785403 -0.09484665010060322 -0.024008224458261562 134 131 136 1.32 78 0 79 0 80 0 84 0 
1011 -0.20058316568714185 -0.008543774783814517 0.006835878435536458 143 138 136 1.13 78 0 79 0 80 0 82 0 84 0 
1012 -0.017766575335988077 -0.020799705816568426 0.013804063101350295 154 151 151 0.81 78 0 79 0 80 0 82 0 84 0 
1013 -0.3504804912239151 -0.0027156024950641955 0.009895073418846323 160 154 136 0.75 78 0 79 0 84 0 
1014 -0.3149435075596675 -0.009924777588019573 0.018660627761726722 154 149 145 0.73 78 0 79 0 82 0 
1015 -0.11874506463573398 -0.017639758797495575 0.0019382214677814424 161 156 153 0.38 78 0 80 0 82 0 
1016 0.7805806956192732 -0.07250852705741473 0.0183611766887819 85 94 85 0.33 78 0 79 0 84 0 
1017 -0.2979080320485032 -0.00980894040844893 0.004834345587660049 157 155 152 0.67 78 0 79 0 80 0 82 0 84 0 
1018 -0.10226866476404839 -0.025711733761772937 0.02149626367549784 153 149 145 1.56 78 0 80 0 82 0 
1019 -0.07116488713550895 -0.02381381647733516 0.0038990501095836905 137 132 128 0.99 78 0 79 0 80 0 82 0 84 0 
1020 0.10777329303452732 -0.0353649944766804 0.00788040358097497 129 123 124 0.88 78 0 79 0 80 0 82 0 84 0 
1021 -0.05949103277615597 -0.026472443531258882 0.005973270967400968 143 138 137 0.69 78 0 79 0 82 0 84 0 
1022 0.13221404802068654 -0.04008297477045586 0.013244786627488736 131 123 121 0.58 78 0 79 0 80 0 82 0 84 0 
1023 0.003478795024881687 -0.03561937984053898 0.006109948208998794 137 128 122 0.54 78 0 79 0 80 0 82 0 84 0 
1024 -0.35964185277910865 -0.01685505783099761 0.011819677949390428 181 180 157 2.47 78 0 80 0 82 0 84 0 
1025 -0.3322360069385769 -0.018166710850330947 0.010162487058459124 142 141 140 0.38 78 0 79 0 80 0 82 0 84 0 
1026 -0.14713618055432165 -0.0307312382931777 0.011743994574017869 153 146 140 1.24 78 0 79 0 80 0 82 0 84 0 
1027 0.24842485904449518 -0.05613677740533696 0.011647760287743836 139 131 126 0.75 78 0 79 0 80 0 84 0 
1028 0.11940178231107201 -0.04660987685359219 -0.008546387570123493 143 144 145 1.37 78 0 80 0 82 0 84 0 
1029 0.46534484945446186 -0.07008220414301825 0.009978532942890528 140 133 131 0.32 78 0 79 0 80 0 82 0 
1030 -0.26837624682947825 -0.027581760507461306 0.0059654509608475514 158 154 152 0.12 78 0 80 0 84 0 
1031 0.29305107530974417 -0.061171495412615684 0.008599108219088158 136 129 128 0.47 78 0 79 0 80 0 82 0 84 0 
1032 0.34714846453807513 -0.07015552161128591 0.019001059119949648 145 141 140 0.72 77 0 78 0 79 0 80 0 82 0 
1033 -0.0017880729692887343 -0.047766265617287806 0.00909161800390601 155 139 134 0.63 77 0 78 0 80 0 82 0 84 0 
1034 0.5355885596878983 -0.08108304599868915 0.007892365045880645 142 131 129 0.35 78 0 79 0 80 0 
1035 1.9447914061477705 -0.15562415790921108 -0.002885207913367438 131 119 113 0.16 78 0 79 0 80 0 
1036 -0.4360397751289991 -0.021912016454115224 0.013933240950584569 126 109 97 0.68 78 0 79 0 80 0 82 0 
1037 0.20011896871398205 -0.05894961416423228 -0.002530195364410126 147 143 142 0.51 78 0 79 0 80 0 82 0 84 0 
1038 -0.16694444584003554 -0.04175711607203392 0.00622025216955846 147 146 145 0.87 78 0 79 0 82 0 
1039 -0.30688249684906543 -0.03830723728277763 0.010340005243812733 132 126 121 0.65 78 0 79 0 80 0 82 0 84 0 
1040 0.48382585733102934 -0.08995863859324227 0.01703253000109628 118 109 107 1.0 78 0 80 0 82 0 
1041 0.16152370987902165 -0.06937727843651387 0.0030854822153205674 149 145 141 2.66 78 0 79 0 80 0 82 0 84 0 
1042 0.3260108864074752 -0.07726120004768233 -0.001782026955890359 144 140 130 1.29 78 0 79 0 80 0 82 0 84 0 
1043 -0.25363587534096205 -0.04717608989812516 0.016816501174324205 127 125 122 2.45 78 0 80 0 84 0 
1044 0.566685690877987 -0.09968140085200689 0.010881838481861195 174 168 164 0.64 78 0 79 0 80 0 
1045 -0.21872738806977793 -0.04991687780696097 0.009245102742627687 144 143 143 0.43 78 0 79 0 80 0 84 0 
1046 0.21628788068633464 -0.07743550124419402 0.0063162140800780975 168 161 158 0.57 78 0 79 0 84 0 
1047 -0.15418249829480646 -0.05933795644439621 0.0077715220804313034 159 156 154 0.94 78 0 79 0 80 0 82 0 
1048 -0.33686946783722704 -0.049419811381879786 0.00923404360989144 142 135 130 1.34 78 0 79 0 80 0 82 0 84 0 
1049 -0.054408784368819185 -0.07123943901406371 0.012767360321688681 156 152 148 0.88 78 0 79 0 80 0 82 0 
1050 0.3116889070469253 -0.09245402623033261 0.008690872737180388 152 151 154 2.49 78 0 82 0 84 0 
1051 -0.09923159368430867 -0.066253132165209 0.009396791343318611 152 152 153 0.5 78 0 79 0 80 0 84 0 
1052 0.13483236647182945 -0.08746680631664994 0.021971471502439943 146 132 122 0.77 78 0 79 0 80 0 82 0 84 0 
1053 0.4060466778840973 -0.1032182788081964 0.004947360283397817 151 149 150 0.29 78 0 79 0 80 0 
1054 -0.025035006618409794 -0.07842199050439241 0.019032076002633236 138 134 132 1.11 78 0 80 0 84 0 
1055 0.008872891380532544 -0.07851101293582968 0.0019676272476956136 141 141 140 0.44 78 0 79 0 80 0 82 0 84 0 
1056 -0.21122983061671663 -0.06763740174729116 0.013136473954820094 147 142 139 1.21 78 0 79 0 80 0 82 0 84 0 
1057 -0.1700973286469625 -0.07016493649108524 0.008575192770192253 147 146 146 1.15 78 0 79 0 80 0 82 0 84 0 
1058 0.1026230912284018 -0.09242526285523434 0.007965282543729746 128 121 118 0.52 78 0 80 0 84 0 
1059 0.3205526666690869 -0.11005728024195677 0.01386891817421887 142 138 137 0.51 78 0 79 0 80 0 82 0 84 0 
1060 -0.2845249912090894 -0.06935401198880953 0.01114949846104496 133 133 131 0.42 78 0 79 0 80 0 82 0 84 0 
1061 -0.0984684062202083 -0.08282025970557622 0.014983338019694425 148 149 150 1.12 78 0 79 0 80 0 82 0 84 0 
1062 0.1901360551833643 -0.10267488553865639 0.006198306198613945 127 122 123 1.02 78 0 80 0 82 0 84 0 
1063 -0.17461082082967627 -0.07843855516694681 -0.012010614433893174 147 145 143 1.39 78 0 79 0 82 0 84 0 
1064 0.23751140157220574 -0.11263103762377003 0.010214333866523706 158 151 151 1.29 78 0 79 0 80 0 82 0 84 0 
1065 0.25549729411248734 -0.11316825620741428 0.004790661503800031 140 137 140 0.9 78 0 80 0 82 0 84 0 
1066 -0.3940361047872108 -0.07175194850543509 0.019264806242744292 129 126 123 1.62 78 0 80 0 82 0 
1067 -0.3332448987650532 -0.07566384586481201 0.011125844141031127 106 106 105 0.46 78 0 79 0 80 0 82 0 84 0 
1068 0.11331131333620575 -0.11180251112299755 0.020392869199757246 150 149 148 0.4 78 0 80 0 84 0 
1069 -0.3709656561539963 -0.0736034355157894 0.01108634872835168 124 115 113 0.49 78 0 79 0 80 0 
1070 -0.3557803240684817 -0.07518798468565002 0.00428786601299791 145 140 139 0.96 78 0 82 0 84 0 
1071 -0.04228109510793049 -0.10193817001142369 0.009320838028971767 166 158 149 0.44 78 0 79 0 80 0 84 0 
1072 0.18405236659931712 -0.11724442743818037 0.0027414460184544964 144 141 142 2.01 78 0 80 0 82 0 84 0 
1073 0.38857811006220255 -0.13312073853214368 0.006247521623838903 156 157 160 0.39 78 0 79 0 80 0 82 0 
1074 -0.21277516924666276 -0.0924666109057306 0.01009886552692496 152 146 141 0.3 78 0 79 0 80 0 84 0 
1075 -0.44129122247303293 -0.07786470021004488 0.013206832720422668 135 134 131 0.17 78 0 79 0 80 0 
1076 -0.12785626757793123 -0.10456134976352838 0.01487140873242554 160 159 159 1.07 78 0 80 0 82 0 84 0 
1077 -0.3928036905914697 -0.08142849119997436 -0.0021199974255803333 152 150 149 0.35 78 0 79 0 80 0 82 0 
1078 -0.18350978736690632 -0.10262484424155566 0.012094558127955679 95 80 86 0.38 78 0 79 0 80 0 82 0 84 0 
1079 -0.16599228193846308 -0.10554100111023518 0.014243790628017727 150 139 137 0.44 78 0 79 0 82 0 84 0 
1080 -0.08830461336212023 -0.11298356443301583 0.013513674541036025 148 146 145 0.33 78 0 79 0 80 0 82 0 84 0 
1081 0.4225176554706426 -0.1486024916530549 -0.0018556318370390734 134 134 133 0.34 78 0 79 0 80 0 82 0 
1082 -0.31599634231412754 -0.09663833852145781 0.013061304966577758 153 150 148 0.51 78 0 79 0 80 0 82 0 84 0 
1083 0.04970021683847714 -0.1299300537232831 0.018538170710489688 136 129 129 0.15 78 0 80 0 82 0 84 0 
1084 -0.48972532042427963 -0.0890632048349394 0.021584324535072863 92 86 82 0.87 78 0 79 0 80 0 82 0 
1085 -0.23642263646741984 -0.10801790468262962 0.011061130223904314 132 129 132 0.53 78 0 79 0 80 0 82 0 84 0 
1086 -0.46337590645920745 -0.08882341343300998 0.009137570430347797 134 134 137 0.69 78 0 79 0 80 0 82 0 
1087 0.5307139164154789 -0.17019729470393863 0.008592943865847857 67 76 89 0.38 78 0 79 0 80 0 
1088 -0.3809894026071019 -0.0981622282487945 0.00896426183775434 131 130 128 0.47 78 0 79 0 82 0 
1089 -0.26990472402167826 -0.1083294837859346 0.012170656862517504 135 130 133 0.51 78 0 79 0 80 0 82 0 84 0 
1090 -0.3513671125784972 -0.1043011038289211 0.01054340666571818 149 146 147 0.93 78 0 79 0 80 0 82 0 84 0 
1091 -0.21064194233682787 -0.11676522859386507 0.011306484638302639 136 131 132 0.76 78 0 79 0 80 0 82 0 84 0 
1092 0.2700343576925677 -0.16134891790626266 0.01842155407035362 147 148 146 1.28 78 0 80 0 82 0 84 0 
1093 -0.2965738715853405 -0.11640447629751816 0.011788951221289867 79 93 99 0.62 78 0 79 0 80 0 82 0 84 0 
1094 -0.06429532821805728 -0.13964862714968707 0.016232233836625642 112 91 94 1.49 77 0 78 0 79 0 80 0 82 0 84 0 
1095 -0.40025126110344844 -0.10921056116105804 0.007935252854334607 128 123 122 0.51 78 0 80 0 82 0 
1096 -0.4423877097702581 -0.1097144090035077 0.01720571973443663 120 119 123 0.45 78 0 79 0 80 0 82 0 
1097 -0.382552397577526 -0.11684117401098909 0.023721558312298274 146 144 148 0.59 78 0 79 0 82 0 
1098 -0.33812029284031914 -0.12130680784502529 0.006473578219660769 132 120 114 0.39 78 0 79 0 80 0 82 0 84 0 
1099 -0.2554800385359594 -0.133544339821705 0.03125257662763259 121 100 101 2.95 77 0 78 0 79 0 80 0 82 0 84 0 
1100 0.47985581052657655 -0.19357220040209444 0.018366220778099684 122 125 131 0.26 78 0 79 0 80 0 
1101 0.3058721483994207 -0.1796879769660994 0.014850241337584613 159 155 155 0.38 78 0 79 0 82 0 
1102 -0.36506095329033683 -0.13386769665347925 0.013375693252983822 97 99 106 0.35 78 0 79 0 84 0 
1103 0.1446799810988076 -0.1824963405147375 0.004099139158702858 140 135 132 0.29 78 0 80 0 82 0 84 0 
1104 -0.4581764000101991 -0.13163184086556912 0.012386374216877716 129 126 125 0.63 78 0 79 0 80 0 82 0 
1105 -0.03243055689241314 -0.17139034332684772 0.01321059791983048 122 102 102 0.64 78 0 79 0 80 0 82 0 84 0 
1106 0.5265491853699632 -0.37357375732366005 0.783338695676195 128 130 114 2.36 78 0 79 0 80 0 
1107 -0.17570666793349482 -0.16016337596338892 0.012318481536703008 127 103 104 0.87 78 0 79 0 80 0 82 0 84 0 
1108 0.45807441906651003 -0.36621681233938247 0.767592009892633 87 97 81 0.26 78 0 79 0 80 0 
1109 -0.4040017691108635 -0.14236538010150546 0.01809800164734865 137 129 122 0.68 78 0 79 0 80 0 82 0 
1110 -0.2436749653339359 -0.15758605036383222 0.016442144286287874 118 98 95 1.37 78 0 79 0 80 0 82 0 84 0 
1111 -0.3188254682361265 -0.15333977943708949 0.016417371832483152 143 132 123 0.25 78 0 79 0 80 0 
1112 0.1775224506873141 -0.20171429519948925 0.009700358648299101 135 130 128 0.67 78 0 79 0 82 0 84 0 
1113 0.2500563108963353 -0.21227454754488634 0.008397566927596856 141 139 140 0.38 78 0 79 0 82 0 84 0 
1114 -0.482066563732667 -0.14611773991032717 0.015967030805215554 140 138 138 0.22 78 0 79 0 80 0 82 0 
1115 -0.44267758393617834 -0.1522148734114147 0.025002815573441417 122 119 119 0.66 78 0 80 0 82 0 
1116 -0.14560648496943202 -0.18067935986035366 0.015189635679581315 97 100 98 0.6 77 0 78 0 79 0 80 0 82 0 84 0 
1117 0.34664070148854964 -0.22510486000863295 0.010364322923988478 132 123 126 0.44 78 0 79 0 80 0 82 0 
1118 0.39177493826953846 -0.22725012320596377 0.00915776713392491 144 136 138 0.23 78 0 79 0 82 0 
1119 -0.3722555471107783 -0.15659414098972518 -0.000975610246374714 125 122 123 1.18 78 0 79 0 80 0 82 0 84 0 
1120 -0.344947382369962 -0.16297619932650748 0.013242515211822958 128 126 126 1.17 78 0 80 0 82 0 84 0 
1121 -0.33163299647632977 -0.1628565012482625 0.007828237672335536 100 92 89 1.5 78 0 80 0 82 0 84 0 
1122 -0.29768337917535037 -0.16860233397573748 0.010371174824357787 140 136 131 0.69 78 0 79 0 80 0 82 0 84 0 
1123 -0.28048950544428336 -0.16869896435309606 0.0037292281107115244 163 164 163 0.52 78 0 80 0 84 0 
1124 0.06706596384077518 -0.20388410792284223 0.011547892244540225 134 122 126 0.44 78 0 79 0 80 0 84 0 
1125 0.085698372202753 -0.20334402570543664 0.006301262946983854 128 123 124 1.18 78 0 80 0 82 0 84 0 
1126 0.09976162847108788 -0.20657461615302192 0.013013277971348991 149 151 156 0.64 78 0 80 0 84 0 
1127 -0.25899995354202443 -0.17663073093508264 0.014270845612828431 50 63 73 0.37 78 0 79 0 80 0 84 0 
1128 -0.23846258248110352 -0.1783208832125675 0.01462059805095306 131 117 117 0.95 78 0 79 0 80 0 82 0 84 0 
1129 -0.20565707609080414 -0.1770425655749049 -0.013270110867438678 34 29 32 0.42 78 0 79 0 80 0 
1130 -0.12906479965589499 -0.18398578854205627 -0.030019557035485978 23 18 16 0.63 78 0 79 0 80 0 84 0 
1131 -0.06542672273415717 -0.1918335810044008 -0.02815804486451956 24 16 16 1.43 78 0 79 0 80 0 82 0 84 0 
1132 0.4684019962837579 -0.36905660036823706 0.6583628191313053 101 105 76 0.88 78 0 79 0 80 0 
1133 -0.3628764163658289 -0.17364595347296213 0.009554909715205895 150 150 150 0.32 78 0 79 0 82 0 
1134 -0.31697822884131105 -0.17896735389931268 0.011213117936964334 125 121 115 0.83 78 0 79 0 80 0 82 0 84 0 
1135 0.36483425433481387 -0.24437201296671285 0.0024501682356072862 126 117 118 1.02 78 0 79 0 80 0 82 0 
1136 -0.28285043198821885 -0.1851487607808449 0.012619123256961462 129 128 134 0.63 78 0 79 0 80 0 84 0 
1137 0.007199839258855589 -0.20701872782675934 -0.03646535062768441 34 29 24 0.31 78 0 79 0 80 0 
1138 -0.23710674605168414 -0.19131227004634083 0.0037870471473580025 72 58 62 0.58 78 0 79 0 80 0 
1139 -0.18788651346074398 -0.19403583928019924 -0.019612220746573428 48 48 43 1.3 78 0 80 0 82 0 84 0 
1140 0.014016008829329574 -0.22289800917795483 0.011006584929315277 65 59 59 0.58 78 0 79 0 80 0 82 0 84 0 
1141 0.0551460221500234 -0.22409786964672884 0.01530222390207614 109 94 97 0.47 78 0 80 0 82 0 84 0 
1142 0.579286288838619 -0.40310686422334724 0.7338121128667097 158 153 152 0.24 78 0 79 0 80 0 
1143 -0.50059867761387 -0.17286442817994374 0.029450049086814367 166 160 146 1.12 78 0 80 0 82 0 
1144 -0.06714908263630426 -0.20599804348803702 -0.04273236568662808 65 62 53 0.55 78 0 79 0 80 0 82 0 84 0 
1145 -0.25915150966668127 -0.19759048225976217 0.0104135566888508 128 116 118 0.37 78 0 79 0 80 0 82 0 84 0 
1146 -0.008025789115884696 -0.21665020462874796 -0.03243846468542433 60 59 53 0.99 78 0 80 0 82 0 
1147 -0.3031033193714316 -0.19652594502315462 0.0100256569347974 123 122 121 0.49 78 0 79 0 80 0 82 0 84 0 
1148 -0.23794531192516527 -0.20353967404178624 0.010200252584661396 110 95 89 0.48 78 0 79 0 80 0 82 0 84 0 
1149 -0.21541727432259944 -0.20737816011695653 0.012024189471206093 62 63 68 0.58 77 0 78 0 79 0 80 0 82 0 84 0 
1150 0.32852613504219663 -0.2678784219142094 0.003116157510987261 49 46 44 0.63 78 0 80 0 82 0 84 0 
1151 0.39036271987274895 -0.37999961870748644 0.6307488910477455 82 85 66 0.8 78 0 79 0 80 0 
1152 -0.379112944788667 -0.19663352585436072 -0.010562371114662739 162 164 129 2.06 78 0 80 0 82 0 
1153 -0.3428586061432213 -0.20394788851284573 0.013020689396258778 159 160 160 0.41 78 0 82 0 84 0 
1154 -0.31859501861368256 -0.2096298699579654 0.010366991391854263 145 142 137 0.43 78 0 79 0 80 0 82 0 84 0 
1155 -0.2613468446335846 -0.2163499926747922 0.012592170749325948 125 108 106 0.43 78 0 79 0 80 0 82 0 84 0 
1156 -0.24120426472920548 -0.21949842979784584 0.016168786551867598 123 111 110 0.28 78 0 79 0 80 0 82 0 84 0 
1157 -0.3034796423435262 -0.2131355872150303 0.005299696934984333 128 124 124 0.92 78 0 79 0 80 0 82 0 84 0 
1158 0.32438054311625264 -0.280450699974783 0.008334001513287337 65 64 69 0.61 78 0 82 0 84 0 
1159 -0.286534287351913 -0.21954847680192996 0.014410519782702913 107 111 117 0.51 78 0 79 0 80 0 82 0 84 0 
1160 0.44597831722921544 -0.28806150643502815 -0.06824565244737912 52 57 51 0.44 78 0 79 0 82 0 
1161 -0.3572413382481303 -0.21497745691568093 0.010738131732984435 120 119 117 0.55 78 0 79 0 80 0 84 0 
1162 -0.3333565958459547 -0.21754562897432356 0.004594804455510637 110 107 107 1.09 78 0 80 0 82 0 84 0 
1163 -0.04643402178234479 -0.24407503817568188 -0.029755667149301335 83 98 99 1.0 78 0 79 0 80 0 
1164 0.19691620738812488 -0.27617129268731894 0.017261528672881443 139 133 130 1.13 78 0 82 0 84 0 
1165 0.40500130529444844 -0.2884576751260411 -0.04748469601031946 96 102 110 0.1 78 0 80 0 82 0 
1166 -0.22058050144052138 -0.23390997953371645 0.012108070303826324 72 71 64 0.84 77 0 78 0 79 0 80 0 82 0 84 0 
1167 0.4677779182171764 -0.29705209732532556 -0.046806623119767465 80 87 89 0.59 78 0 79 0 80 0 82 0 
1168 0.5188506609365361 -0.30169521902557117 -0.05590600920304811 48 52 48 0.74 78 0 79 0 80 0 82 0 
1169 0.6306691689746895 -0.32077058938175246 -0.00639261477903208 150 149 152 0.45 78 0 79 0 80 0 
1170 -0.245432790744505 -0.2315731332309029 0.00450268388497399 138 131 117 1.41 77 0 78 0 79 0 80 0 82 0 84 0 
1171 0.05621595145448616 -0.26745227694676055 0.010632845627284393 102 93 98 1.08 77 0 78 0 79 0 80 0 82 0 84 0 
1172 0.23986997993874204 -0.28235293983729426 0.007429336029384448 142 139 142 0.87 78 0 80 0 82 0 84 0 
1173 -0.3190257169828959 -0.22423269327316692 0.011876269873110079 144 142 143 0.71 78 0 79 0 80 0 82 0 84 0 
1174 -0.1377788348187161 -0.24051340557361306 -0.03922778054864828 139 152 162 0.74 78 0 80 0 82 0 84 0 
1175 -0.2649798634060439 -0.24174641198372515 0.01009086692631378 142 136 134 0.71 78 0 79 0 80 0 82 0 
1176 -0.33656966491796886 -0.23449466066076124 0.01520532604949354 138 138 135 0.41 78 0 79 0 80 0 82 0 84 0 
1177 -0.3113288934696148 -0.2379283002079175 0.011049606495834308 133 133 130 0.74 78 0 79 0 80 0 84 0 
1178 -0.28926482104273443 -0.23981899114755556 0.0028826824881447166 131 128 128 0.91 78 0 79 0 80 0 82 0 84 0 
1179 -0.24518597036619763 -0.24371084596360404 0.01229219081289834 146 137 135 0.55 78 0 80 0 82 0 84 0 
1180 0.010333146476149913 -0.2755552463932157 -0.006416897265065558 77 66 64 1.5 78 0 79 0 80 0 82 0 84 0 
1181 0.05062927755863722 -0.2844700388285308 0.017537750770329374 152 150 151 0.63 78 0 80 0 82 0 
1182 -0.37005755552505504 -0.2411282696055861 0.010871783951027503 136 133 129 0.6 78 0 79 0 82 0 
1183 -0.3309894774840907 -0.24970105762224803 0.01535305182859048 160 160 156 0.59 78 0 79 0 80 0 82 0 
1184 -0.3196458592010057 -0.2503848287883676 0.013845328047931815 142 142 142 0.62 78 0 80 0 82 0 
1185 -0.3080674488431614 -0.25274792622142583 0.01245264894948761 132 129 124 0.54 78 0 79 0 80 0 82 0 84 0 
1186 -0.26446397366313346 -0.258262070762049 0.013745819904275702 140 135 134 0.5 78 0 79 0 80 0 82 0 84 0 
1187 -0.24560955352449637 -0.2604014491606143 0.011540722051937014 146 136 131 0.48 78 0 79 0 80 0 82 0 84 0 
1188 0.005890390108840404 -0.2916647216499701 0.003095592793082247 93 85 82 0.51 78 0 79 0 80 0 82 0 
1189 0.09692197296332761 -0.30390228057758 0.010241064501994579 124 119 115 0.42 78 0 79 0 80 0 84 0 
1190 0.1986856053954601 -0.3159464881079146 -0.008491473054401677 122 119 120 1.75 78 0 80 0 84 0 
1191 0.23607546014929737 -0.3255717188478996 0.016619027491552973 137 133 137 0.49 78 0 80 0 82 0 84 0 
1192 -0.3879075573251427 -0.25446768991141683 0.014890043486050608 90 86 85 0.37 78 0 79 0 80 0 82 0 
1193 -0.3080209734075321 -0.2667336887014368 0.009871798359363027 146 146 145 0.38 78 0 79 0 80 0 82 0 84 0 
1194 -0.28869825671006233 -0.2703736697824772 0.011906361393839493 140 137 132 0.57 78 0 79 0 80 0 82 0 84 0 
1195 -0.22393290659630827 -0.2797330251842924 0.008679312105223325 49 43 52 0.59 78 0 79 0 80 0 82 0 
1196 0.0007406792538621199 -0.3068537624481678 0.00452308010855873 53 42 45 0.92 78 0 79 0 80 0 82 0 84 0 
1197 0.13479712097575353 -0.32451397336283583 0.010066754790996058 135 132 130 0.68 78 0 79 0 80 0 82 0 84 0 
1198 0.17196129204006105 -0.3284522281657287 0.005376105906451656 127 126 124 0.82 78 0 79 0 80 0 82 0 84 0 
1199 0.19242025045428857 -0.332499676505928 0.017460495330667847 130 132 132 0.68 78 0 79 0 80 0 82 0 84 0 
1200 -0.14399655611552092 -0.28737273993037066 -0.0374993434871671 158 171 185 0.3 78 0 80 0 84 0 
1201 -0.42567936389867117 -0.26477115846549915 0.012307913253110314 127 125 120 0.35 78 0 79 0 80 0 82 0 
1202 -0.3900769719466411 -0.2691639826649162 0.005369685826799753 124 120 116 0.76 78 0 79 0 80 0 
1203 -0.36768215907442153 -0.2758885279916834 0.012607845592125244 81 86 95 0.45 78 0 79 0 80 0 82 0 84 0 
1204 -0.3059749459722347 -0.2824196947575612 0.008554361651504916 122 118 113 0.66 78 0 79 0 80 0 82 0 84 0 
1205 -0.271157347636336 -0.2878441398821107 0.01260549521062826 143 138 134 0.69 78 0 79 0 80 0 82 0 84 0 
1206 -0.22598098329729124 -0.2934849365445014 0.011536634286967384 58 55 62 0.82 78 0 79 0 80 0 82 0 84 0 
1207 -0.001648744449018913 -0.3190459905452786 0.005905035789007584 56 44 44 0.19 78 0 79 0 82 0 
1208 -0.25571534196951623 -0.28991617685373844 0.013404205927691315 125 116 116 0.55 78 0 79 0 80 0 82 0 84 0 
1209 -0.14566154971527082 -0.2985097618420481 -0.03987888536164119 150 163 177 0.36 78 0 79 0 80 0 84 0 
1210 0.06301283916729261 -0.33060412134470163 0.008105371867009659 138 132 128 1.63 78 0 80 0 84 0 
1211 0.14120748963169538 -0.3405810717579475 0.008445110204278627 126 120 115 0.72 78 0 80 0 82 0 84 0 
1212 0.26948275301965074 -0.3589300041780191 0.006934910035236719 162 162 166 0.35 78 0 80 0 82 0 
1213 -0.42020528215704556 -0.2788783121002933 -0.001118311245355219 128 128 125 1.23 78 0 79 0 80 0 82 0 
1214 -0.4007405859640437 -0.2824623094170316 0.008274826148479963 124 121 119 0.65 78 0 79 0 80 0 82 0 
1215 -0.34591199204244005 -0.2904758204823108 0.013841727621603628 122 117 111 0.62 78 0 79 0 80 0 82 0 
1216 -0.3358841749604017 -0.29298672817277177 0.012594310525562147 130 127 123 0.42 78 0 79 0 80 0 82 0 84 0 
1217 -0.28637871715388596 -0.2994340910914577 0.02031150770337531 118 115 113 0.46 78 0 79 0 80 0 82 0 84 0 
1218 -0.24489695926573396 -0.30397565098329743 0.0101550199205942 92 81 82 0.45 78 0 79 0 80 0 82 0 84 0 
1219 0.14053616238167355 -0.3533519619643869 0.001179246041078219 135 129 127 0.2 78 0 79 0 80 0 
1220 -0.1474240980005 -0.314859309533823 -0.038499472830821 159 175 191 0.48 78 0 80 0 82 0 
1221 0.31464810113498154 -0.3776623092111573 -0.0007726719900529311 89 98 106 0.54 78 0 79 0 80 0 82 0 
1222 0.476652396706302 -0.4881580214777458 0.7809658174329712 77 91 61 0.51 78 0 79 0 80 0 
1223 0.30101676275259714 -0.42269322472566984 0.39536585428813664 113 118 116 3.5 78 0 79 0 80 0 
1224 -0.49801421293586823 -0.2852954233595481 0.03359777616411597 108 102 95 1.17 78 0 79 0 80 0 82 0 
1225 0.4055379403716375 -0.3864301859730014 -0.10272377789347842 124 141 150 1.49 78 0 79 0 80 0 
1226 -0.41551888670152404 -0.2944555079759451 0.007675296975488521 127 125 125 0.84 78 0 79 0 80 0 82 0 
1227 -0.434175735723757 -0.2932787130244587 0.00985385031763375 120 117 118 0.57 78 0 79 0 80 0 82 0 
1228 -0.35481699961333657 -0.30312562372260315 0.005027178483973049 142 142 138 1.5 78 0 79 0 80 0 82 0 
1229 -0.3146612303905161 -0.30908767036495693 0.011110910339594327 141 136 130 0.29 78 0 79 0 80 0 82 0 84 0 
1230 -0.25628476028150027 -0.3184806743019273 0.013264119648034978 131 121 117 0.82 78 0 79 0 80 0 82 0 84 0 
1231 -0.2715492471258681 -0.3168373227249647 0.01352325695834855 144 138 135 0.49 78 0 79 0 80 0 82 0 84 0 
1232 -0.2148710334363536 -0.3278312380251055 -0.0409258331175244 156 167 186 0.56 78 0 79 0 84 0 
1233 -0.5014767298906944 -0.2988061239778878 0.01841200940877119 120 123 105 1.36 78 0 79 0 80 0 82 0 
1234 -0.46145134291790074 -0.30359867435743476 0.010760395553552016 128 122 117 0.46 78 0 80 0 82 0 
1235 -0.15047304349778942 -0.33858446562670436 -0.036440350037302505 165 187 201 0.33 78 0 79 0 80 0 82 0 84 0 
1236 -0.024087370647009276 -0.3562580752470189 -0.03983110585180638 135 149 163 0.46 78 0 79 0 80 0 82 0 84 0 
1237 -0.0037747574941319195 -0.36045840902597015 -0.007526047348926479 52 39 41 0.44 78 0 79 0 80 0 
1238 0.03490142730766921 -0.36947681040213076 0.016163529153604195 123 112 113 0.47 78 0 79 0 80 0 82 0 
1239 0.17552503802968022 -0.3900402296793235 0.023574635756451467 125 120 120 0.57 78 0 80 0 82 0 
1240 0.42105111201426126 -0.41476311862599224 -0.052991132114273753 129 140 156 0.47 78 0 79 0 80 0 
1241 -0.4380739105449068 -0.3071632341133825 0.0077625824154941014 116 114 109 0.41 78 0 79 0 80 0 82 0 
1242 -0.42221163520796123 -0.310069813958923 0.013372563822211081 107 108 105 0.58 78 0 80 0 82 0 
1243 -0.34187823668714146 -0.320876019220379 0.01409179634515123 122 122 119 0.63 78 0 79 0 80 0 82 0 84 0 
1244 -0.30018019959091874 -0.3263380180494464 0.006133136529718364 120 116 114 0.93 78 0 79 0 80 0 82 0 84 0 
1245 -0.25652526687159427 -0.3324985212294046 0.011835215922606501 109 103 102 0.35 78 0 79 0 80 0 82 0 84 0 
1246 0.23434799288405972 -0.39811276143200724 0.0040291229985025545 168 164 166 0.62 78 0 80 0 82 0 
1247 0.12639241589682088 -0.3830790865949445 -0.0028816592826337306 133 128 131 1.24 78 0 79 0 80 0 82 0 84 0 
1248 0.2517100588327932 -0.4030186579576028 0.024701724248703094 131 129 132 0.53 78 0 80 0 82 0 
1249 -0.2763687856910406 -0.3313143669473303 0.011230485674512902 114 107 110 0.65 78 0 79 0 80 0 84 0 
1250 0.5783711370401475 -0.5157399496304576 0.6949543189792253 68 82 53 0.54 78 0 79 0 80 0 
1251 0.019839277918315967 -0.3821627602864073 0.0068805213646316865 151 146 146 0.22 78 0 79 0 84 0 
1252 0.033282926541889135 -0.38397863592852266 0.00486773925609052 150 143 143 0.32 78 0 79 0 80 0 
1253 -0.4585267501315592 -0.32028822561842274 0.026573288802018258 110 105 98 0.28 78 0 80 0 82 0 
1254 0.4482625897361009 -0.4355463873992634 -0.07765799477651347 101 118 111 3.25 78 0 80 0 82 0 
1255 0.09873216706013288 -0.4087141134746064 0.015481804719075232 126 125 127 0.64 78 0 80 0 82 0 
1256 0.26706825260879896 -0.43143897048847857 0.002346307330897801 129 128 132 1.96 78 0 79 0 80 0 82 0 
1257 -0.1548546126253292 -0.36981449204523553 -0.0376391017306803 164 182 200 0.15 78 0 82 0 84 0 
1258 -0.49501531196470916 -0.32966688243746556 0.02528496739538255 119 120 121 0.8 78 0 79 0 80 0 82 0 
1259 -0.41809523841164126 -0.33874976546224356 0.004404589924314806 129 127 128 0.43 78 0 80 0 82 0 
1260 -0.2825281720132006 -0.35904450063298177 0.011647886699254428 123 122 122 0.54 78 0 79 0 80 0 84 0 
1261 -0.23594044684125162 -0.36432765995590444 0.0061500747566909375 57 59 69 0.62 78 0 80 0 82 0 84 0 
1262 0.41387874232667066 -0.5013830427309172 0.4912305224814282 96 105 100 0.58 78 0 79 0 80 0 84 0 
1263 0.23954864872219594 -0.44228447514528135 0.009509130484305572 131 131 135 0.35 78 0 79 0 82 0 84 0 
1264 -0.4891153443970181 -0.34456731143025265 0.017413345085511178 121 122 122 0.19 78 0 79 0 80 0 82 0 
1265 -0.4694867682405221 -0.34772480526786065 0.017475498248278765 115 114 110 0.29 78 0 79 0 80 0 82 0 
1266 -0.3688661365134052 -0.36136825328500577 0.001520923429649823 123 123 119 1.09 78 0 79 0 80 0 82 0 84 0 
1267 -0.3427068733045473 -0.3653976383350637 0.01545395639274938 134 135 136 1.08 78 0 79 0 80 0 82 0 84 0 
1268 -0.30696518667848816 -0.36978424581765873 0.013043003330620806 107 110 114 0.4 78 0 79 0 80 0 82 0 84 0 
1269 -0.16262092487834412 -0.38500977102447376 -0.06419037359629431 137 168 184 2.17 78 0 80 0 84 0 
1270 -0.4466038895437769 -0.35103591835621584 0.0016896930820258227 109 111 113 0.62 78 0 80 0 82 0 
1271 -0.2868216252122229 -0.3729393962538371 0.0005104898110128708 147 147 150 1.86 77 0 78 0 79 0 80 0 82 0 84 0 
1272 -0.682488808915883 -0.3207473344284018 -0.004704089275443302 142 160 175 2.65 78 0 79 0 80 0 82 0 
1273 0.07750843484510117 -0.43588208234167414 0.0072480981054163784 148 145 146 0.87 78 0 79 0 80 0 82 0 84 0 
1274 -0.2417318459842292 -0.38950172963277335 0.017495383991348312 64 52 56 0.52 78 0 79 0 80 0 
1275 -0.5121496308869737 -0.3551096087329584 0.014948351799583204 85 81 78 0.25 78 0 79 0 80 0 82 0 
1276 -0.4905988534706561 -0.35835172197947096 0.0009350226114950289 117 116 110 0.48 78 0 79 0 80 0 
1277 -0.4507848429497322 -0.36436717114786255 0.012512385172020135 121 116 108 0.73 78 0 79 0 80 0 82 0 
1278 -0.4063662723196818 -0.3722105581299865 0.03229477819574367 131 128 130 0.73 78 0 80 0 82 0 
1279 -0.3904055214745405 -0.37269205185714827 0.002992358669366979 104 102 98 0.78 78 0 79 0 80 0 82 0 
1280 -0.20246667455159625 -0.3982318176672427 -0.052123492047307485 110 126 134 0.61 78 0 79 0 80 0 82 0 84 0 
1281 0.41453630711333767 -0.4873463840817519 -0.0644107049414886 143 162 183 0.38 78 0 79 0 80 0 82 0 
1282 0.5222010046463661 -0.5089077808742007 -0.00998876411917582 95 92 91 0.4 78 0 79 0 80 0 
1283 -0.5389767588851613 -0.35241759375423276 0.009079526848745356 123 124 124 0.3 78 0 79 0 80 0 
1284 0.2988794927519506 -0.4791568349194475 0.0009880791581902137 90 85 92 0.54 78 0 79 0 80 0 82 0 84 0 
1285 -0.7577247144009014 -0.323850154328573 -0.04399885068174525 108 137 157 0.53 78 0 79 0 80 0 82 0 
1286 0.19381738255671854 -0.4674779697834359 0.003191283252083288 98 89 92 1.03 78 0 80 0 82 0 84 0 
1287 0.010648655635324134 -0.44261138780327935 0.010385279032759875 105 93 94 0.48 78 0 79 0 80 0 82 0 84 0 
1288 -0.6958132230459202 -0.33763492880378076 -0.03925744672187603 146 167 186 0.6 78 0 79 0 80 0 82 0 
1289 -0.6329201832206941 -0.34707850516028993 -0.044897940736318365 156 174 190 0.32 78 0 79 0 80 0 82 0 
1290 -0.5578590648150696 -0.36174032775803244 -0.002412953922197314 71 70 77 0.18 78 0 79 0 80 0 82 0 
1291 -0.420935957619465 -0.3826309282973075 0.009381727668755335 127 124 125 0.32 78 0 79 0 80 0 82 0 
1292 -0.5093536771260251 -0.371228358116924 0.010241122128550106 120 122 123 0.26 78 0 79 0 80 0 82 0 
1293 -0.48499683463546633 -0.3746327327739617 0.008946611748749778 101 102 100 0.31 78 0 79 0 80 0 82 0 
1294 -0.4639160208110735 -0.3775148652204625 0.007789952430628411 120 119 116 0.43 78 0 79 0 80 0 82 0 
1295 -0.3863190100022833 -0.3884028864265999 -0.007931908322669656 134 132 130 0.25 78 0 80 0 82 0 
1296 0.47963904865924845 -0.5225645856103702 -0.0713968525044597 46 54 52 0.93 78 0 79 0 82 0 
1297 0.027565770810576096 -0.4586739832150529 0.0051684813925723105 114 106 110 0.57 78 0 79 0 80 0 82 0 
1298 -0.5290415230492491 -0.38354666537021953 0.026082323938060092 125 123 122 0.44 78 0 79 0 80 0 
1299 -0.502199993688095 -0.3875115440871704 0.018770144029945257 117 115 111 0.86 78 0 79 0 80 0 82 0 
1300 -0.48682938518891017 -0.3887385628207822 0.008934844332828096 117 118 119 0.43 78 0 79 0 80 0 82 0 
1301 -0.4623631616400219 -0.39183280323450453 0.008978877552801912 123 119 116 0.69 78 0 79 0 80 0 82 0 
1302 -0.4243124857241857 -0.39773368257680203 0.013095425885070178 135 134 132 0.31 78 0 79 0 80 0 82 0 
1303 -0.38089084324973804 -0.40468521127053103 0.0056826599544010925 116 117 119 0.94 78 0 79 0 80 0 82 0 
1304 -0.3218375166155415 -0.4147882920772533 0.011219046908525154 126 127 127 0.67 78 0 79 0 80 0 82 0 84 0 
1305 -0.2682408843819566 -0.42119476205434486 0.013197654808802639 109 101 99 0.59 77 0 78 0 79 0 82 0 84 0 
1306 -0.16526431218916682 -0.4357314445287602 -0.04974697858404786 148 160 169 0.6 78 0 79 0 82 0 84 0 
1307 0.4974708563702259 -0.5390758417516037 -0.06250236937034948 56 69 58 1.16 78 0 82 0 84 0 
1308 0.29849313958188617 -0.5128718640813029 -0.007376248239642003 102 111 119 0.46 78 0 79 0 80 0 82 0 
1309 0.37216789016405927 -0.5236636806565117 -0.060237522368708385 124 140 153 0.63 78 0 79 0 80 0 82 0 
1310 -0.7004362003971194 -0.3624492578333367 -0.051767152579202724 130 142 151 0.53 78 0 79 0 80 0 82 0 
1311 -0.6769783947524557 -0.3663485407490846 -0.07030887086749393 72 84 80 0.42 78 0 79 0 80 0 82 0 
1312 -0.5771991089777949 -0.3813227578607353 -0.052062338180067336 67 71 71 2.31 78 0 79 0 80 0 82 0 
1313 0.7490739023171683 -0.6255025585216996 0.6704689994104056 139 128 138 0.61 78 0 79 0 80 0 
1314 -0.4736774209222116 -0.4044229437009587 0.010309585049165904 105 105 104 0.35 78 0 79 0 80 0 82 0 
1315 -0.35263291961622023 -0.4221350906852897 0.005394332816629266 114 114 112 0.76 78 0 79 0 80 0 82 0 84 0 
1316 -0.3126051258012817 -0.428421731938321 0.010497660058099267 105 105 103 0.42 78 0 80 0 82 0 84 0 
1317 -0.2808934333794759 -0.4329162655194647 0.016289291465420686 144 140 138 0.3 78 0 79 0 80 0 82 0 84 0 
1318 0.20926141413720645 -0.5118577341271372 0.011233897568783124 120 115 115 0.67 78 0 80 0 84 0 
1319 0.29422248344372937 -0.5264649027693517 -0.0022556013450931722 84 87 91 0.88 78 0 79 0 80 0 82 0 
1320 0.432814536216515 -0.5447963070229727 -0.05898221145287286 120 141 154 0.46 78 0 79 0 84 0 
1321 -0.45105408178699 -0.40814712368649514 0.010208296728435151 82 79 75 0.37 78 0 79 0 80 0 82 0 
1322 -0.3973836917965887 -0.41715512474750505 0.01112734348777833 117 115 114 0.29 78 0 79 0 80 0 82 0 
1323 -0.3738867326948564 -0.42064390454164746 0.008546532460984135 124 120 112 0.51 78 0 79 0 80 0 82 0 84 0 
1324 0.472711475662949 -0.5525462619352183 -0.07360986457580054 98 115 117 0.51 78 0 80 0 84 0 
1325 -0.5146206245772635 -0.40050162045784776 0.00874824128578755 120 121 122 0.82 78 0 79 0 80 0 82 0 
1326 -0.41704316310399286 -0.41493858947660117 0.015188420521140333 123 121 118 0.98 78 0 79 0 80 0 82 0 
1327 -0.7026116594333679 -0.3757811875845667 -0.053742379280101504 140 155 169 0.29 78 0 80 0 82 0 
1328 -0.6617888825450522 -0.3823106799649534 -0.06908456962755505 83 102 103 0.34 78 0 80 0 82 0 
1329 -0.6377091917276887 -0.386822535117043 -0.04909893009211963 141 157 173 0.47 78 0 79 0 80 0 
1330 -0.1469079519883268 -0.4651366181439673 -0.06077544972739535 125 148 152 0.9 78 0 79 0 80 0 82 0 84 0 
1331 -0.29543744682358736 -0.4475250029657551 0.015467299018548264 107 103 103 0.59 78 0 80 0 84 0 
1332 -0.16851871123449802 -0.4629114153568615 -0.053599159620268066 131 150 167 0.39 78 0 79 0 80 0 82 0 84 0 
1333 -0.4956150577662593 -0.41612129368928347 0.011678945966245191 89 89 93 0.2 78 0 79 0 80 0 82 0 
1334 -0.47138211720581 -0.4200916983479467 0.005691233322653311 105 101 97 0.33 78 0 79 0 80 0 
1335 -0.4580836439884606 -0.42247343495037437 0.01447176150607854 110 106 99 0.43 78 0 79 0 80 0 82 0 
1336 -0.39806339191075646 -0.43175636024463987 0.0035286891410133414 92 89 85 0.56 78 0 80 0 82 0 
1337 -0.37891020307793755 -0.43363137222433834 0.006941991355297716 122 121 116 0.73 78 0 80 0 82 0 
1338 -0.3563521911746231 -0.43741151711826515 0.006900125300653315 111 111 107 0.85 78 0 79 0 80 0 82 0 84 0 
1339 -0.5616835632080305 -0.4077407885138642 0.003443864963024623 66 69 73 0.49 78 0 80 0 82 0 
1340 -0.00040047456384406654 -0.4994544521973016 0.010368009511248388 114 100 101 0.71 78 0 79 0 80 0 82 0 84 0 
1341 -0.6185095052083225 -0.4034885035514037 -0.056055028297119947 103 122 124 0.95 78 0 80 0 82 0 
1342 -0.6816589817516444 -0.3945990236482873 -0.06558567832279816 104 118 120 0.46 78 0 79 0 80 0 
1343 0.6880556088053872 -0.6422227218289382 0.649711044664079 75 86 60 1.15 78 0 79 0 80 0 
1344 -0.36244134616646795 -0.4506445001253093 0.026671578820009145 127 121 119 2.54 77 0 78 0 79 0 80 0 82 0 84 0 
1345 -0.4088289890025727 -0.4446080988420994 0.008372299410863704 111 104 99 0.35 78 0 79 0 80 0 82 0 
1346 -0.3883703098212457 -0.44650293036747296 0.0021058408757892444 114 107 97 0.45 78 0 79 0 80 0 82 0 
1347 -0.34520089067768783 -0.45317130173281994 0.009197160495696188 113 110 106 0.47 78 0 79 0 80 0 82 0 84 0 
1348 -0.32119364021637353 -0.4581681628301385 0.009227257627995922 113 114 119 0.3 78 0 79 0 82 0 84 0 
1349 -0.2975553266760472 -0.46036518551176675 0.010019027836042582 108 98 85 0.98 77 0 78 0 79 0 80 0 82 0 84 0 
1350 -0.07511548559152248 -0.49716620484663976 -0.05991312652275438 163 171 188 0.83 78 0 79 0 80 0 84 0 
1351 -0.5201173423053 -0.42827002217053234 0.007836169668548276 112 115 115 0.84 78 0 79 0 80 0 82 0 
1352 -0.4827999409429567 -0.4335928864596874 0.012770609889821039 122 119 113 0.36 78 0 79 0 80 0 82 0 
1353 -0.45170590342078293 -0.4383374674501696 0.011454969743128096 97 93 89 0.51 78 0 79 0 80 0 82 0 
1354 0.7623632463681321 -0.6586497846702098 0.5246776270320859 46 50 21 0.38 78 0 79 0 80 0 
1355 0.37736706488049876 -0.5854249698940629 -0.08644561230259917 136 153 168 3.46 78 0 82 0 84 0 
1356 -0.6670198905497684 -0.4146685827102551 -0.07171170421965467 145 160 178 0.54 78 0 79 0 80 0 
1357 -0.6435519128397894 -0.41838712035456554 -0.055472083675074835 147 163 178 0.41 78 0 79 0 80 0 82 0 
1358 0.15885077387442909 -0.551152076917915 0.007855456956622042 147 147 147 0.57 78 0 79 0 80 0 82 0 84 0 
1359 -0.733828398514583 -0.40548798958732013 -0.04284169242710956 141 160 173 0.64 78 0 79 0 80 0 82 0 
1360 -0.7068540910238121 -0.4090712925452568 -0.053079328451129504 148 165 181 0.27 78 0 79 0 80 0 82 0 
1361 -0.6839944705690875 -0.41299263335824055 -0.06919480814534351 154 168 185 0.38 78 0 79 0 80 0 82 0 
1362 -0.36667129746646154 -0.4641023268537914 0.013846555870250743 126 125 119 1.09 77 0 78 0 79 0 80 0 84 0 
1363 0.7725173777028914 -0.6746946718117265 0.6025492065322409 57 67 48 0.34 78 0 79 0 80 0 
1364 -0.5002315236660717 -0.4454360096620008 0.0029665096518574074 113 109 106 2.03 78 0 79 0 80 0 82 0 
1365 0.48597743141614647 -0.6143889994447852 -0.059273734817611334 62 73 77 0.59 78 0 80 0 82 0 84 0 
1366 -0.04952522137731419 -0.5244783925336186 -0.05804982843666351 89 97 100 0.43 78 0 80 0 82 0 
1367 0.4453914342072868 -0.6107174475975019 -0.059249727127439034 95 109 113 0.99 78 0 80 0 82 0 84 0 
1368 -0.13424544508789038 -0.5127130183748678 -0.06542934219743257 103 124 130 0.51 78 0 79 0 80 0 84 0 
1369 0.08054758301399245 -0.5530746934648945 -0.001584132977264563 120 124 130 1.88 77 0 78 0 79 0 82 0 84 0 
1370 0.5054917668195613 -0.6290421749071567 -0.00852978731337295 89 86 87 0.55 78 0 79 0 80 0 82 0 
1371 -0.4016580981822676 -0.4748020434512241 0.01143055364903578 126 128 124 0.3 78 0 80 0 82 0 
1372 -0.3845959488565642 -0.47695427053758566 0.02425915365035136 119 119 120 0.96 78 0 79 0 80 0 82 0 
1373 -0.02973075640342876 -0.5365953658412351 0.003605025510389659 59 51 52 0.62 78 0 79 0 80 0 82 0 
1374 -0.4826143701740543 -0.46319291131629636 0.012994495449618615 113 118 118 1.98 78 0 79 0 80 0 82 0 
1375 -0.459372284135893 -0.46613640706834636 0.0120523705850486 107 104 97 0.6 78 0 79 0 82 0 
1376 -0.42232213168440674 -0.4724731898650326 0.01554091821129644 129 129 126 0.96 78 0 80 0 82 0 
1377 -0.5053248345196214 -0.4595932984832036 0.010404034373459048 111 111 112 2.58 78 0 79 0 80 0 82 0 
1378 0.19701933893516876 -0.5846940570024615 0.010971768381765834 110 99 96 0.82 78 0 82 0 84 0 
1379 -0.0853728318644918 -0.53612062232979 -0.06893304720320348 110 128 135 1.16 78 0 80 0 84 0 
1380 0.2453072701961605 -0.5953694747080478 0.0069382807006515 95 95 97 1.39 78 0 80 0 82 0 84 0 
1381 -0.7097538687407994 -0.4346491630462004 -0.05305460921831351 111 126 124 0.09 78 0 79 0 82 0 
1382 -0.6166008713318623 -0.4490238810307724 -0.01849446866752391 96 114 104 1.5 78 0 79 0 82 0 
1383 0.8126605317393588 -0.7038004433774704 0.017465819590475995 36 37 38 1.39 78 0 79 0 80 0 
1384 -0.38156652786248224 -0.49252704857103535 -0.001979161729741108 104 108 104 0.46 78 0 79 0 80 0 
1385 0.35745660804465174 -0.6247288124629207 -0.06016879602834391 119 134 149 0.56 78 0 80 0 82 0 84 0 
1386 -0.4481836277699591 -0.48274879858842 0.020307168699643885 99 98 95 1.49 78 0 79 0 80 0 82 0 
1387 -0.4659867375074601 -0.48053119774720265 0.003244050991943137 114 115 114 0.52 78 0 79 0 82 0 
1388 -0.5704697074005394 -0.4659191427129806 0.0007201779239842665 32 27 29 0.35 78 0 79 0 80 0 
1389 -0.11415675404860176 -0.5491580832420768 -0.05271869599923007 129 144 153 0.54 78 0 80 0 82 0 
1390 -0.32843321274066145 -0.5136369943776165 0.037202309782191634 131 130 127 0.92 78 0 79 0 80 0 82 0 
1391 -0.44338629995031464 -0.49843582562641087 0.012424336882333797 107 105 104 0.39 78 0 79 0 80 0 82 0 
1392 0.2146837997076233 -0.6162366819427371 0.013594966412299403 83 83 76 1.08 78 0 80 0 82 0 84 0 
1393 0.24389016651993223 -0.6201580265694571 0.005877582894366018 130 130 133 0.6 78 0 80 0 82 0 84 0 
1394 -0.5248003257645903 -0.48531923550435224 0.03688942914790694 102 105 106 0.9 78 0 79 0 80 0 
1395 -0.47477395036948705 -0.4963173001218844 0.009803601281022534 110 103 101 0.26 78 0 79 0 82 0 
1396 0.6820193627000392 -0.7131690870786996 0.024761060066206042 43 51 50 0.56 78 0 79 0 80 0 
1397 0.24436347367163536 -0.6337701304904828 0.014866480352587086 104 102 100 2.42 78 0 80 0 82 0 84 0 
1398 -0.33853277393627157 -0.5303474838940966 0.00928076481459783 151 157 154 2.55 78 0 79 0 82 0 
1399 0.25412119601252525 -0.6505757519422435 0.01441463281105948 107 110 109 1.37 78 0 82 0 84 0 
1400 0.27529493410123396 -0.6560635486000395 0.018352637847250275 130 132 139 0.45 78 0 82 0 84 0 
1401 0.10244991671152925 -0.6618781995044922 0.7414102463353509 110 78 30 0.29 78 0 79 0 80 0 82 0 
1402 0.26731075336184873 -0.7241842614465863 0.8695364902006455 78 87 49 0.33 78 0 79 0 80 0 
1403 -0.4793292385572748 0.5814837856467892 0.004827450199511585 119 111 104 0.34 79 0 80 0 82 0 
1404 -0.6372218120167057 0.5505626231647838 -0.037105289503647665 77 84 86 0.25 79 0 80 0 82 0 
1405 -0.5764419665624345 0.5372287725598281 -0.027602136283483514 87 85 79 0.38 79 0 80 0 82 0 
1406 0.09011096744128921 0.5186372017646774 0.008065999438452653 103 75 72 0.19 79 0 80 0 84 0 
1407 -0.5154549888870961 0.5301069620600118 -0.03190852999100091 94 91 88 0.48 79 0 80 0 82 0 
1408 0.019989160225209468 0.5142406740393615 0.008192832949205364 95 61 59 0.46 79 0 80 0 82 0 84 0 
1409 0.3208166196390746 0.5161401416637761 0.004809384531833771 100 101 107 0.34 79 0 80 0 82 0 84 0 
1410 -0.25372765067086545 0.4611757394772962 0.008119910966404298 130 113 106 0.58 78 0 79 0 80 0 82 0 84 0 
1411 -0.3027818906945073 0.4497961630175449 0.013522504426484616 142 143 138 0.11 79 0 80 0 82 0 
1412 -0.6147265325813522 0.4611821747873006 -0.014370607330522311 105 128 143 1.43 79 0 80 0 82 0 
1413 -0.586527585272606 0.4637902344311722 -0.02755557577047707 175 194 215 0.29 79 0 80 0 82 0 
1414 0.6448193363350385 0.44866251689092573 -0.0006498978765927532 114 101 100 0.72 79 0 80 0 84 0 
1415 0.07998160250862518 0.44025709521410805 -0.02976718414943713 68 74 78 0.17 79 0 80 0 82 0 
1416 0.5946555889648653 0.4304467866944959 0.0007699070949764852 136 115 110 0.85 78 0 79 0 80 0 82 0 84 0 
1417 0.4022711482357485 0.4202407448855804 -0.0009742866159960784 150 132 121 0.87 79 0 80 0 82 0 84 0 
1418 0.5391359977439383 0.4163444361290968 0.008501279555175767 132 117 111 0.73 79 0 80 0 82 0 84 0 
1419 0.3446485008273892 0.4099586502527971 0.007684057409469869 85 76 79 0.26 79 0 80 0 82 0 84 0 
1420 0.8485430884665591 0.4148991278172144 0.014797950685147665 59 59 72 0.57 79 0 80 0 84 0 
1421 0.47997327297140424 0.4093203379046184 0.0056135677927113825 97 69 71 0.97 79 0 80 0 82 0 84 0 
1422 -0.13009764750657288 0.39279300038959797 0.008240036627215286 74 69 74 0.71 79 0 80 0 82 0 84 0 
1423 0.07327977819224091 0.40439045104100224 -0.02547861854065836 125 164 205 0.54 79 0 80 0 82 0 84 0 
1424 -0.6566646395223672 0.40346757355949203 -0.02918138255895819 138 166 188 0.44 79 0 80 0 82 0 
1425 -0.648169838514838 0.39648174274222336 -0.05371019534360655 34 40 42 0.44 79 0 80 0 82 0 
1426 -0.6248031865016143 0.3919049307903495 -0.04657436800610082 32 36 38 0.43 79 0 80 0 82 0 
